# 3D point list with one line of data per point:
#   POINT3D_ID, X, Y, Z, R, G, B, ERROR, TRACK[] as (IMAGE_ID, POINT2D_IDX)
# Number of points: 139, mean track length: 2.3669064748201438
1 -0.042716411605920546 -2.5389846988833007 26.120145794479434 25 64 63 0.59813735247359368 66 229 53 390
2 -0.042716411605920546 -2.5389846988833007 26.120145794479434 25 64 63 0.59813735247359368 66 230 53 391
3 -2.2498364014373422 -2.1407539745585873 21.779579767122829 41 68 63 0.60563702090453841 66 115 53 396 52 325
4 0.020869388848526738 -1.8102453645001284 27.684529131181531 99 134 136 1.6307459455894513 66 251 53 418 52 371
5 -1.1739118277743166 -0.61378242170719099 24.311042375678682 8 29 22 0.94967338013345126 66 283 53 465 52 504
6 -1.523740484101372 -2.8663815271296174 21.780088941210181 44 86 82 0.43609893762939572 66 213 53 507 52 280
7 -0.67644180144810906 -2.853373988402867 24.245939889477619 21 60 63 0.18908503431922313 66 216 53 515
8 -3.0987484391442379 -1.3591134671965013 22.278320432011135 97 92 89 0.17059762456004213 66 141 53 567 52 480
9 -2.5076398769191943 -1.2229236105297294 21.624065321435868 14 30 29 0.18116550316276539 66 146 53 573 52 484
10 -2.0772617820177919 -0.71106400374133405 22.1271421586288 27 40 36 0.31401203404708616 66 171 53 585 52 397
11 -2.864080465283533 -3.7190721758788725 23.861812142210635 3 0 0 1.205531952430605 66 335 53 601 52 516
12 -2.9749656851437409 -3.8443164213547476 24.792602664753261 3 0 0 0.82873547472554931 66 336 53 602
13 -0.96999698623263653 -3.1252039646465004 23.912367371110271 22 69 61 0.21447027843431773 66 209 53 616 52 443
14 -2.5462284289897754 -1.9026483761693394 21.4757970687638 0 15 4 0.12735022537613538 66 238 53 628
15 -2.4127443064814753 -1.7802712702737653 21.080623371656237 0 9 0 0.60473893860431449 66 242 53 630
16 -2.1974658026218989 -1.7161491882827258 21.285609679491781 0 14 4 0.61191015870847154 66 312 53 634 52 539
17 -2.3573270248624345 -1.2901050168889538 21.801944382254014 4 3 0 0.28772437893381331 66 262 53 645
18 -1.1859333369824947 -0.80836283785676555 24.340960905397075 56 96 100 0.67806864187679894 66 328 53 660
19 -2.3835123782138878 -0.61709559782620005 22.563351468810644 27 46 42 0.24356385407507802 66 174 53 665
20 -0.86638618802169831 -0.51161079049690694 24.883437489328085 59 88 91 0.8287193763257279 66 331 53 669 52 505
21 -2.8767604177198565 -2.480321954208474 22.806090790439701 8 32 19 0.45019085322964014 66 305 53 690
22 -0.27739549285145471 -2.5425606240598229 25.043764513663458 47 86 81 0.58291115381080905 66 341 53 692 52 594
23 -0.27739549285145471 -2.5425606240598229 25.043764513663458 47 86 81 0.58291115381080905 66 340 53 693 52 593
24 -2.8910235809363396 -2.02433773738997 22.070159852198557 27 50 44 0.15159053110087026 66 308 53 695
25 -2.8658855507001735 -2.0128871605456946 21.915779026722188 27 50 44 0.50986648237737464 66 309 53 696 52 535
26 -2.459257526278825 -1.8535974403550299 21.286421210024567 35 58 52 0.35991661597933888 66 310 53 697
27 -3.1867724836197207 -1.5204681119804289 22.277281810974138 16 1 0 0.39787591798175764 66 315 53 700 52 600
28 -1.9745670482990452 -0.66971775448939797 21.712803035104432 0 2 4 1.2203319397337093 66 280 53 711 52 498
29 -0.42060657118913114 -4.4092359048770913 24.989398331508347 74 125 80 1.0264561838903699 66 412 53 718 52 643
30 -0.90943030430448357 -3.5481045640889128 23.750319973019828 71 118 82 0.44276771587664704 66 372 53 721 52 616
31 0.25375116093901856 -3.3349708360602026 27.948572862005825 186 187 181 2.1750451327910576 66 419 53 729 52 622
32 -2.6338030784029831 -1.8730179128042916 21.682013758057039 0 13 2 0.14955282441370235 66 349 53 737 52 626
33 -2.5719430098185763 -1.7196776366557545 21.736151482010072 0 9 1 0.723440747041321 66 311 53 738 52 541
34 -2.4934924614825285 -1.4696463721408581 21.690032970852389 17 39 36 0.24663142334441698 66 351 53 741 52 627
35 -2.9116884972153985 -1.1062079276764138 22.312101353177784 1 1 0 0.16088784285083016 66 356 53 748 52 632
36 -2.9023193300337611 -1.1045680381186251 22.239946135881773 1 1 0 0.20978937211288806 66 355 53 749
37 -1.3036657882396292 -1.0590110768627905 23.870024899548834 11 55 58 0.51689987669678106 66 400 53 750 52 637
38 -1.4060604280741695 -4.7504472023292603 23.798006588541984 69 117 75 0.9742514045827807 66 411 53 753
39 -1.2806871743474586 -3.1898605349788336 23.021857447785834 4 52 28 1.8421772880170291 66 374 53 759 52 618
40 -1.1946886559205225 -3.0319978284328588 23.463382860501408 31 74 64 0.642570115958911 66 418 53 762 52 620
41 -0.066817439305176474 -3.3203107187117458 26.089152974807146 46 80 63 0.49092776835813079 66 441 53 763
42 -2.6674774228001814 -1.7552787894813691 21.747690696634553 13 38 35 0.15214981605649244 66 388 53 769 52 658
43 -2.5186073691855055 -1.0124325534748966 22.080078574588669 5 1 0 0.43279968542637198 66 401 53 771 52 635
44 -0.53821627049125342 -2.7312700777195862 24.702928565201596 41 78 62 1.0274925393755165 66 421 53 775 52 654
45 -2.2218130301774455 -1.8786639342708544 21.541961168224198 6 27 15 1.0217086476037718 66 386 53 777 52 672
46 -1.9920339555880768 -3.6950335828318397 23.722963105281877 4 29 10 1.1216196778875043 66 431 53 794 52 681
47 -0.81934250439808154 -2.6294044561789818 24.311515087690875 135 179 189 1.4967129251890334 66 436 53 797 52 701
48 -0.55393074875903636 -2.1526667930380641 24.714078221121927 81 129 134 0.75915474910922498 66 448 53 800 52 688
49 -0.55393074875903636 -2.1526667930380641 24.714078221121927 81 129 134 0.75915474910922498 66 447 53 801 52 687
50 -0.71879967002219081 -0.59376029441268385 25.380004438509918 106 134 137 0.47308051059113743 66 463 53 806
51 -0.36385943433644996 -3.9328795811629833 25.966561071696628 195 187 184 1.8338429419815077 66 439 53 807 52 698
52 -2.3756482947531241 -2.4720046108670943 21.831825469755707 39 66 59 0.78918839608707414 53 808 52 683
53 -1.1202820597601431 -2.6495134640502545 23.841586897042689 54 100 98 0.81288324128589773 66 454 53 809 52 700
54 -1.0459894855452179 -0.72422506881361737 24.989085602641978 4 37 28 0.61252406143535942 66 462 53 814 52 694
55 -2.8773619169229208 -3.6133088457478588 24.731837834984422 200 196 185 0.0012095102666969052 66 466 53 817
56 -1.4131868424407497 -2.8553429137418429 22.326650127351098 75 133 137 0.74957948871863456 66 467 53 818 52 704
57 -2.972755311030725 -1.7791711277670901 22.119637195258772 1 14 4 0.51214059650695287 66 456 53 822 52 705
58 -2.4199474996413386 -1.7337551041080776 22.115835482211757 6 23 13 0.76956765644283165 66 457 53 823 52 706
59 -2.7249552708740925 -1.4675747764053546 22.027530614765293 13 35 32 0.33745372323469192 66 458 53 824 52 708
60 -1.2595639922147739 -3.9495091310711223 23.928048416215464 141 186 157 0.98680782478741458 66 469 53 831 52 713
61 -0.94627457307435003 -3.2013621082657058 23.25923006789354 43 90 81 1.9831042968134127 66 470 53 832 52 718
62 -1.6644554388771464 -0.73952592626745917 23.435702877192568 72 112 119 1.7187473786941336 66 471 53 834 52 720
63 -1.1788310051610162 -2.7601097335516687 25.783488862155806 54 102 102 1.2273267188195105 66 475 53 837
64 -1.8293839083217174 -4.3564562124057895 24.306147251648124 35 71 35 0.054805762491217005 53 32 52 25
65 -2.1373022028706035 -2.2491307484581315 21.690526377648087 2 32 25 0.31091971937069646 53 176 52 131
66 -2.3661697167618136 -2.0022675092542768 21.625837909620351 42 70 71 0.10144864117105822 53 206 52 146
67 -3.0800857385025555 -1.299289744764748 22.273440196719282 13 1 1 0.1370642467952129 53 240 52 183
68 -1.783294464840556 -0.93999048154723397 21.748257537782834 31 69 72 0.19440743932075297 53 257 52 204
69 -1.1590843011519483 -0.51132430920427274 24.527237995914046 43 72 72 0.19161146193971834 53 281 52 234
70 -1.4486667600274097 -4.7982854205271028 23.732897699052245 60 106 70 0.59095445246677392 53 478 66 6 52 240
71 -0.99615793095959337 -4.1513863339877597 23.4799729589793 33 74 44 0.18167214930627865 53 319 52 252
72 -1.8826176411375299 -3.8455700828668955 23.285050679046993 3 29 2 0.0080038224572976432 53 333 52 263
73 -3.3475288959323364 -3.4889513127298182 23.700946661336086 40 62 56 1.4936815762387592 53 347 52 274
74 -0.28841096515417874 -2.5785875407824874 24.757223299904112 87 129 127 0.51396320263854123 53 386 52 323
75 -2.8601808810207867 -2.09695529572187 22.298660730888024 0 24 14 0.48249963362875503 53 545 52 331
76 -2.1321498760736484 -1.8606384085738168 21.342695740924356 1 29 30 0.093612360003301281 53 549 52 338
77 -0.41136235853511627 -2.3332687767616185 25.022179645004393 88 129 135 0.58197640503765646 53 196 52 340
78 -1.9126532709474784 -1.4975250426627453 21.284864249423361 38 64 63 0.50518227824123008 66 134 52 356
79 -2.3824513099291544 -1.4355169143502726 21.846460687708184 0 11 11 0.40431171129718868 53 233 52 363
80 -2.272300919965681 -1.1601147046340814 21.813338196961361 99 88 82 0.39198116699211127 66 154 52 379
81 -2.272300919965681 -1.1601147046340814 21.813338196961361 99 88 82 0.39198116699211127 66 155 52 380
82 -3.3059575764428133 -1.2126102010011728 22.789493700362204 27 5 1 0.061592561172562621 53 433 52 383
83 -2.9693345017375412 -1.0866798820625294 22.364104897414833 2 2 0 0.02070706802221077 53 437 52 386
84 -1.0039961983286068 -1.1010022163089017 24.223985221519463 52 92 94 0.027561900388088492 53 438 52 392
85 -1.983117829723684 -0.61874906569127486 21.934396571107779 35 52 46 0.38848805039323275 53 463 52 404
86 -2.7253926958321237 -0.63376084534868049 22.450308992117119 27 46 42 0.64471466361620733 53 277 52 406
87 -1.4057437549473577 -0.60836477748563533 24.188023252592018 23 39 38 0.19324241881094723 53 462 52 410
88 -1.3018697520678235 -0.60553398329576535 24.188218933245604 77 93 92 0.35673846486400129 53 464 52 412
89 -0.88359706990143461 -4.5452895007459126 24.060346011349971 54 95 63 1.1218073836809159 66 293 52 422
90 -1.0752193146761333 -3.3409703203270613 24.501054040273807 91 139 126 0.34498333265142428 66 59 52 438
91 -2.1803078283281536 -2.2256091192238774 21.721206533618204 0 29 23 0.60077809784907388 53 536 66 113 52 455
92 -2.5571624507614441 -1.8117412800000747 21.677044727833358 41 62 62 0.17772720773977352 66 241 52 462
93 -3.251563005205238 -1.5402870316856576 22.268884827680928 89 88 83 0.14929816634520232 53 699 52 472
94 -1.8744870188796763 -1.3054460281082729 21.320800374383143 98 103 96 0.34665517335541252 66 259 52 478
95 -3.0958632823245993 -1.3563342203092201 22.254081562929187 110 106 102 0.057492531931601643 53 568 52 481
96 -2.5847627014280437 -1.250531650545317 21.854083431097362 0 16 16 0.073775340113524018 53 571 52 483
97 -1.9491930784886033 -0.66222398766594037 21.581921607042588 0 5 7 0.0099576239202246054 66 281 52 499
98 -2.7630539440613258 -0.71176134782121259 22.546521193919904 0 3 0 0.21076206426131361 53 662 52 501
99 -1.7690916785981212 -5.4407030196991046 23.92957698574196 38 60 40 0.064260733382387969 53 594 52 509
100 -1.1035536539919431 -4.8553044634830309 24.228205831653906 101 136 96 0.74991947822098237 53 717 52 511
101 -2.0668934564095318 -4.1618431272422569 23.638300358104296 50 83 54 0.25959979040823761 66 191 52 513
102 -3.134850313009288 -3.2383920026924375 22.640848262048355 70 115 115 0.23372414874582997 53 684 52 519
103 -2.8845418603269994 -2.1342625084015485 21.854330045419079 34 61 56 0.042634149886887587 53 626 52 531
104 -2.5684959646713956 -1.7151355576017102 21.707512832788911 0 11 2 0.80577966036014037 53 739 52 542
105 -2.175790233145166 -1.6641821238552081 21.431015264152744 37 59 57 0.075899924979758601 66 244 52 543
106 -1.9141738628777496 -1.4499878008838203 21.417575866196643 5 17 20 0.11430958317868761 66 252 52 546
107 -1.8193266734737352 -1.345798456544292 21.220674267624183 1 15 15 1.2420142100354541 66 394 52 549
108 -2.489143667071724 -1.3436804501255004 21.696608970690075 0 2 7 0.11038506444021555 66 258 52 552
109 -1.8131820283358291 -0.92933871237521948 21.446430274459306 0 10 15 0.085932465532144203 66 325 52 561
110 -1.8082147608384807 -5.4396697406467824 23.723091200304022 167 167 167 0.16061213572549451 53 673 52 579
111 -1.2241126323308924 -4.9485310732611847 24.003039585269409 101 137 103 0.47699070241669667 53 716 52 581
112 -0.96554273463308737 -3.2968861961669589 24.453001656773665 11 59 50 0.26440660420079665 66 375 52 589
113 -1.1950790781146372 -2.6160604263501379 23.539085042755769 44 92 96 0.067827849095821624 53 732 52 592
114 -3.3386135780946726 -1.6265806057044121 22.46193824798852 82 79 70 0.32281356784612303 53 636 52 598
115 -3.3386135780946726 -1.6265806057044121 22.46193824798852 82 79 70 0.32281356784612303 53 637 52 599
116 -2.2719817378679625 -1.2744464793194679 21.696239943751408 99 98 89 0.08066699215840073 66 317 52 601
117 -2.2719817378679625 -1.2744464793194679 21.696239943751408 99 98 89 0.08066699215840073 66 318 52 602
118 -0.055681590654818036 -2.583329677183611 25.841172485242755 31 67 63 0.53788985436104653 53 734 66 345 52 625
119 -0.42034506451304798 -1.5645516392632723 25.287584844618216 41 73 72 0.15499351987745702 66 391 52 629
120 -0.43836775886785539 -1.2633453264496095 26.847665272980784 138 153 162 0.17257164542795667 53 705 52 639
121 -0.16051599448872389 -3.8918998619626333 26.019073620612549 1 5 5 0.73451894565822617 66 337 52 647
122 -1.9249057071402618 -0.99153424017230019 21.561922656243613 115 114 109 0.19445729649324855 66 403 52 665
123 -2.0716421104419322 -0.93540593139591555 21.707852134370995 13 4 1 0.11398654808124482 66 404 52 667
124 -1.9614526078407395 -1.3092883190418041 21.527469520513748 121 121 115 0.16623794312163975 66 426 52 676
125 -3.0538932133210417 -0.97996888053734588 22.500373677016853 15 35 34 0.44722725786093803 53 786 52 677
126 -1.2567640332212506 -0.52272779605652864 24.43634180445278 93 99 97 1.5157364349494111 53 790 66 452 52 679
127 -3.0250217579572594 -3.0776386110765515 23.026315609256649 63 119 127 0.58685753513612671 66 440 52 682
128 -0.29830212965249325 -2.6564242655471264 24.669789901704142 82 129 135 0.34027226142591671 53 799 52 684
129 -0.69340828291709444 -2.3256137462940791 24.216489337796133 29 66 58 0.92616034292342864 53 811 66 446 52 686
130 -2.2208869925233472 -0.79698156068931536 21.930574550659802 16 45 41 0.30382498612051723 66 437 52 691
131 -0.40527790155375332 -0.93097432519880075 26.654647639801812 0 0 0 0.45825279050148371 53 813 66 461 52 692
132 -0.91273199894210588 -4.259522464790555 23.289824939086802 12 44 20 0.45110951321510218 53 815 52 696
133 -1.6789363264008492 -2.446523941762099 22.118048297605448 35 73 74 0.50193839919692063 53 821 52 699
134 -2.7221726048512473 -1.4609030910597127 21.975404077859967 14 42 41 0.0053353219714179535 66 459 52 709
135 -3.09571957457768 -1.2194545203797409 22.544009781238799 40 5 2 0.77714450106726074 53 825 66 449 52 710
136 -1.1033617013035935 -1.2107355015317713 24.104323334696854 29 73 76 0.11800691915383163 53 827 52 712
137 -2.6459031212370916 -2.1929500806224458 22.00242018215371 6 34 20 0.11953051982268395 53 830 52 714
138 -2.0743827494299394 -3.4272798122079076 24.092318132317654 2 31 13 0.91920542078443135 53 835 52 721
139 -2.5831460960892083 -1.8723396040776636 23.064862965465966 1 20 9 0.12770621438366669 66 474 52 723
