# 3D point list with one line of data per point:
#   POINT3D_ID, X, Y, Z, R, G, B, ERROR, TRACK[] as (IMAGE_ID, POINT2D_IDX)
# Number of points: 390, mean track length: 4.9065789473684207
1344 0.99790434584933518 1.3060812549927638 3.4758383926210219 76 110 104 0.92129153994789503 1 235 31 364 30 261
1345 0.63136029397587101 1.6522154836654253 3.4827192120593051 74 103 85 0.78082073114992046 31 306 30 271 65 438 29 228 28 184
1346 0.7249807712713513 0.63753453233349522 3.5375368822027489 72 97 57 0.95129354134512645 31 377 30 291 65 419 29 182
1347 0.58779140363343985 0.88486965696644626 3.5226697433073486 86 117 86 1.508430493942613 2 246 30 293
1348 0.45200003404359684 1.9616941110936426 3.677827341924286 135 139 129 1.0669475508101491 31 373 30 306 65 407 29 176 66 272 28 159
1349 0.90523891061586936 0.70618047416671459 3.6798454878264426 93 132 87 0.67375548823824394 31 378 30 310 66 417
1350 0.58378296373125926 1.6910131445057339 3.5698886462922288 63 95 90 1.4319802299960669 31 384 30 326
1351 0.61188543460956135 2.0285038140369767 3.7535101776404574 38 28 23 0.36915621550800332 31 388 30 329 65 466
1352 0.7506623590360052 1.8766457669022558 3.6290712012147051 52 89 85 0.64380727305637653 31 407 30 345 29 283
1353 0.42670537738045233 2.0372041772055498 3.7923607216947302 140 134 120 0.52582193799048504 31 399 30 348
1354 0.92194159907717566 1.1089187055201588 3.6423691223685219 7 40 25 1.245538197177005 31 393 30 351 29 296 50 372 51 359 26 203 52 353 53 309
1355 1.0202860201561712 1.2487887736690106 3.4728888077677262 158 166 157 1.0648121787606857 31 401 30 352 29 305 65 480
1356 0.69326537028354818 1.9556189542803426 3.7159099207956001 52 88 84 0.37819519029611798 31 412 30 358 29 303
1357 0.89095760360406306 1.0411436790225206 3.7369702453470235 148 178 168 1.6707831245295233 30 361 65 510 29 315 31 379
1358 0.61835809687047627 0.70345871491855305 3.4932125155710256 0 31 0 0.51491326087421874 31 414 30 362 65 499
1359 0.20105326811372193 1.0165832539651702 3.917017997405071 0 16 4 0.9417801421841604 31 409 30 363 66 463
1361 0.82734275987614314 1.3057373187175305 3.609065425672072 8 35 26 1.7654771514475531 31 422 30 370 29 326
1362 1.031790112365885 1.5649380416973808 3.5819996911577978 96 139 130 0.40284975930078182 31 423 30 371 29 322 28 311
1363 0.78728749919533836 1.5097365956438158 3.9637496727395325 76 112 108 0.14897701146711917 31 427 30 376
1364 0.78728749919533836 1.5097365956438158 3.9637496727395325 76 112 108 0.14897701146711917 31 428 30 377
1367 0.45798587162389448 2.1883283722206159 4.1219315982585352 44 60 59 2.0662541443913431 31 118 51 33
1368 0.064654622554373431 1.1103819851804388 4.4391495089818749 5 25 14 1.3495717227078399 30 81 29 159 28 150 50 146 67 43 26 143 25 176 27 140 24 190 23 124
1369 0.7967355026453633 1.7265513313413234 3.514321089500978 80 110 102 0.26977786736389359 30 188 65 275
1370 0.56426767308299897 1.9675740294787998 3.6965292279197559 66 89 89 0.16645108695716115 30 128 65 290 29 112 28 94
1372 0.294010874221316 1.3830031593875964 3.3974559018409427 50 80 76 0.48373416486931015 30 178 65 331 29 54
1373 0.053236934629337318 1.087162671933497 4.2144617153585742 0 19 14 0.49223970636092851 30 227 65 386 29 192 66 347 28 185 27 211 51 258 50 228 26 174 52 275 53 244 25 193 24 207
1375 0.29239277881993542 0.18038023368744244 4.0528398380315176 194 195 190 0.97900393275593978 30 290 65 454 29 250
1376 0.64210612631496056 1.6956327881552928 3.535027899204604 19 46 39 1.1004466467765683 30 303 65 462 29 259
1377 0.87087938354155092 1.1207103963254821 3.834318311413309 152 181 174 0.93999378168719561 30 316 65 469 29 276
1378 0.049750340148962791 1.0719450953725747 4.5231380529056153 32 57 51 1.0914471104906549 30 322 65 483 29 299 66 439 28 283 27 275 51 354 50 349 26 233 52 369 53 312 25 262 24 279 23 255 89 353 64 352 63 361 62 324 61 356 22 290 88 362 21 274
1379 0.19297800348205113 1.3274263640018447 3.7559272806474722 17 45 33 0.90879153112003508 30 355 65 503 28 312 27 289
1380 0.66964383026012353 1.6368220132489164 3.7789507483976061 54 84 82 1.2062176606222217 65 522 66 486
1381 0.79036848475620169 2.0010953359744663 3.7881829685756641 47 72 71 1.2544349259412992 30 126 65 181 4 330 42 280 78 50 6 353 7 404 41 304 5 251 3 310 75 229 1 192 79 352 39 159 77 59 40 265 4 150 2 139 54 381 7 274 8 296 84 523 9 260 83 502 6 245 31 191
1382 0.78092340187221243 1.7190902685376557 3.5433686812448211 17 42 36 1.8268530502504865 40 344 41 269 56 324 38 112 39 256 37 7 75 176 1 91 6 102 39 27 83 479
1383 0.46236068121053181 0.4794746537252127 3.3607937941909443 45 71 46 2.2236539307583691 30 153 29 4 28 114
1384 0.78171217834685125 1.1541275730756226 3.8296368792058715 42 74 63 0.23026589780417142 30 48 29 46 66 234 50 83
1385 0.010389490638143317 0.9216426307712311 4.5831200970561996 31 48 38 0.68082490040767474 65 231 29 61 66 94 28 146 27 135 50 143 67 16 26 141 52 162 53 132 25 175 24 191 23 128 64 43
1386 0.058690463589695874 1.0789355425438585 4.3584421543747336 37 53 43 0.92903038372533731 65 234 29 65 28 149 51 27 52 43 53 31
1389 0.051584473415309806 1.0559287474698551 4.3479457201218565 0 12 5 1.5677755440150372 65 89 29 68 27 136 51 131 26 106 52 170 23 163 89 225 64 228 63 173 62 144 63 224 22 121
1390 0.67120845239183746 2.0700807279875209 3.808092709980853 73 95 88 0.45343057424152095 30 202 65 295 29 115
1392 0.38896648442810527 0.29042422239368837 3.5131971611174637 125 136 118 1.2377247187487197 65 1 29 127 28 112 27 94 26 81 52 255 25 1
1393 0.38194039793475981 0.31139809970054166 3.5048289890389452 1 10 0 0.66958799567830829 65 2 29 131 28 165 51 301 50 325
1394 0.76007953120897465 0.59099983620647878 3.4607427655487846 36 57 30 1.8753583824813163 65 306 29 132 66 211
1396 0.32830781265492121 1.225704409878398 3.5555143551908968 59 86 77 0.51804335015761238 65 233 29 150 51 150
1397 0.94098392728260161 1.7721481640843519 3.5956712182190018 87 116 111 0.50584745613736148 30 272 29 158 66 321
1398 0.031640754755847045 1.1767037481049352 4.417538578978383 0 11 0 0.82863671108229697 30 95 65 243 29 167
1399 0.54125897440754722 1.9009148338996458 3.6285074381544722 8 38 28 0.33700269593032645 30 246 65 404 29 171
1400 0.39752144321996818 0.25349155348548552 3.6256084544697758 100 116 90 0.44375831586371195 65 197 29 178 28 166
1401 0.26804411251384708 1.7794143746948063 4.8201744364419614 12 29 19 1.2133975189873751 30 251 29 206 27 156
1402 0.0023893877717511836 0.53221355126856607 4.4743706976778954 161 167 157 1.5510191457262443 65 422 29 220 66 391
1403 0.30426672604962224 1.3559184175741021 3.386003719148829 152 183 173 1.484580526738887 30 223 29 224 28 178 27 125
1404 0.011907863587701017 0.93365773130384699 4.6551164492331685 0 15 5 0.60759274802513707 65 382 29 229 28 209 27 232 52 324
1407 0.053615093267873948 1.0796347181291022 4.4429071080234595 29 44 37 0.69714591921973823 30 232 29 234 28 210 27 213 26 189 52 302 53 271 25 222 23 215 24 210 89 273 64 223 62 141 61 55 22 167 88 177
1408 0.079771508111240896 1.3461076694570224 4.6846976579243558 0 7 0 1.2434871510970114 65 388 29 238 28 271 51 282 66 312 50 225 53 294 52 320
1409 0.22982304091820813 0.4012800260741004 4.5530515199001433 148 151 144 0.78818597655121658 65 421 66 387 29 251
1410 0.070050792356400271 1.1357667521536456 4.4636309784024064 3 18 8 0.62554246222867071 65 470 29 282 51 311
1411 0.10411765658708244 1.3440821954452122 4.2898592582984634 3 17 11 1.2494480012448232 30 274 29 285 66 424 65 436 28 286 51 355 50 352 26 219 52 370 53 307
1412 0.072637145583416218 1.1172306306479962 4.9696790399405071 32 47 42 0.9796960361615481 65 459 29 287 66 423 50 335
1413 0.31332701844347199 1.6997227211538761 4.4013387167702653 1 24 16 0.78959771739685414 65 473 29 291 66 404
1414 0.43778133203069464 2.0535524640251621 3.8244047560056176 144 139 128 1.2954471030091141 30 349 29 293 28 220
1415 0.78760509959551139 0.96715804770885216 3.7072364533692861 0 33 3 1.2447600138871531 65 487 29 295 66 458 67 345
1416 0.80024572188502885 1.1965943900238318 3.832742415491226 1 28 14 0.7302872610131429 30 353 65 481 29 297
1417 0.48855155854475701 1.4610954245112731 3.4575703716491244 33 65 56 1.3587411222502455 65 493 29 298 28 261 66 446 27 247 52 331
1418 0.082486156151240775 1.2330859052343617 4.5638861261895682 24 44 35 0.74704923341445939 65 485 29 301 66 443 28 284 27 276 51 352 26 242 53 311 24 280
1419 0.087061217458776874 1.234423897306546 4.5741523604266243 24 44 35 0.78485562343755544 65 484 29 302 66 442 28 285 51 353
1420 0.52134514241125607 0.58438624097388803 3.3968338745584394 10 40 12 0.3622319784159701 65 498 29 310 66 465 28 298 50 389
1421 0.14292543730924118 0.78284866197667147 3.7811877076757394 5 27 5 1.4724816034362711 29 311 66 466 51 374 50 379
1422 0.015071848067805427 0.92406119817113108 4.3837819874818402 9 25 14 0.74992033249884138 65 489 29 313 66 459 28 304 27 288 51 369 50 374 26 248 52 381 53 329 23 259
1423 0.87517413409544142 1.0386392831047955 3.7159872916685939 175 173 161 1.1988061934668872 30 360 65 509 29 316
1424 0.8065870675994492 1.231785687712772 3.846906294459143 5 33 19 1.7171891922789768 65 513 29 317 28 303
1426 0.17733757164885086 1.1625528079767276 4.0128490914100281 25 48 40 1.5537686554164751 30 365 29 323 28 318 27 292 26 250
1431 0.0075032361278181692 0.99593360507968187 4.52921411035741 5 25 16 0.61883995172152551 30 73 65 79 66 95 50 11
1432 0.041094468013818164 1.0345920631948198 4.8532415914738021 15 37 25 1.0676937282173071 29 86 66 104 28 154 51 199
1433 1.0417492998632243 1.7924536566135607 3.6493234898966502 69 86 83 0.48661706765475415 29 69 65 277 66 166
1434 0.053967379636929769 1.0758187580855743 4.2686463183653478 43 64 55 0.66398679996470888 29 64 66 238 28 70 27 132 52 172 26 57 53 207 24 208
1435 0.069293498247187502 1.1129518254422524 4.4651719568922195 1 16 7 1.2162960359784101 65 240 66 240 51 21 25 124
1436 0.65048161681298944 1.3474410064133138 3.7326871542018685 7 37 27 0.20508267615465348 30 64 66 245 50 64
1437 0.9106099871588621 1.833638533397423 3.6254501545736235 95 107 103 0.35022349941757885 29 165 65 345 66 262
1438 0.54932695193957437 1.9013389901746851 3.6385918442412537 24 51 47 0.31417107994439947 29 172 65 405 66 325
1439 0.037881557886181971 0.80924039360337874 3.8552853297637988 31 57 32 0.92188025256623296 29 253 66 341 50 276
1440 0.93459701734951084 1.0155137344481457 3.6514902520032528 0 3 0 0.54964040978427942 65 375 66 343 67 233
1441 0.93459701734951084 1.0155137344481457 3.6514902520032528 0 3 0 0.54964040978427942 65 374 66 344 67 234
1442 0.95651028454157372 1.3958272341235916 3.506937430008553 72 103 105 0.49989446385133263 29 187 66 350 67 274 59 260
1443 0.40082660623921301 1.9506788498025014 4.5495634832671055 0 1 1 0.53282936046289642 65 464 51 332
1444 0.30285480194875225 2.1065411172494741 4.0930690601430859 108 117 114 1.2432323444600881 65 450 66 376 51 285
1445 0.96968124302218306 1.2118110444089512 3.4854052229313868 31 61 51 0.65719497081453626 29 252 66 396 28 234 27 196
1446 0.078311527724801488 1.1101451527641917 5.1469415626449209 25 42 36 1.5444198139934675 29 264 66 397 28 269 27 278 67 181 51 329 50 302 50 334 52 357 53 302 26 243 25 264 24 288 23 263
1447 1.011108376801598 1.4555465226500777 3.5322481518354749 68 107 102 0.50137599029892788 29 254 66 400 67 275 49 332
1448 0.46276707357621866 1.4926405809203704 3.5236448542746235 61 93 90 0.35579621195779731 65 253 51 290
1449 0.18685603033178941 1.7914594724532187 4.7254894693387062 56 57 51 1.7132421996268754 30 307 65 443 66 405 67 281 51 245
1450 0.35337509606912149 1.8071924434688298 4.4836107425637524 0 27 18 1.2463604713429315 29 292 65 474 66 406 28 275 27 252 67 253 51 312 50 336
1451 0.66725406484057692 0.77430191992234776 3.4590084051805192 83 111 73 0.25219286334000979 66 419 28 199
1452 0.10833847968178953 1.3438068993214045 4.2940661231115289 10 31 19 1.2633004019473453 29 286 65 435 66 425 28 287 51 356 26 218 52 371 53 306
1453 0.42597528228534431 0.53137177371938726 3.398899699713168 34 68 32 1.228235990375377 29 270 66 434 28 254 27 241 67 335 51 350 26 182 49 352
1454 0.1298602005788507 0.90611345321369563 3.8178606298988722 25 55 20 0.34454651921679214 65 488 66 451
1455 0.011706343301496169 0.91970614528092187 4.37349302514294 18 36 24 0.75217476569791297 65 490 66 460 50 375 51 370
1456 0.88747728848943008 1.3572420772083904 3.5240697183339975 9 39 29 0.49155942992727503 65 502 66 467 28 302 67 354 50 387
1457 0.10079609658761796 1.7033946893861505 4.4766411498293337 23 49 38 1.5446947826006319 65 518 66 468 50 384
1458 0.076672535261331831 0.97837160965885639 4.1914108474572913 36 63 56 0.28266561064335538 30 364 66 473
1459 0.090246483547141709 1.2041959242401181 4.2634597062544985 13 33 21 1.2894608368973923 67 346 51 382 50 394 52 388 26 256 53 334 25 277 24 292
1460 0.078995811371523561 1.1967573382252723 4.2555111126543084 13 33 21 1.4684172231849124 29 325 66 477 28 319 27 296 51 383 50 395 26 255 52 389 53 335 25 276
1461 0.095340587966067702 1.4180426109151332 4.5874853081076949 27 54 45 1.9466522695667254 29 327 66 480 50 392
1462 0.8098285749699734 2.1529812274909115 4.2869156556026002 35 44 43 1.9515937186001679 30 140 66 192
1463 0.74912886373862864 1.1578213518030656 4.164997868535977 11 44 21 2.0284934803485255 65 523 66 488
1464 0.74912886373862864 1.1578213518030656 4.164997868535977 11 44 21 2.0284934803485255 65 524 66 489
1466 0.042206752095433286 0.92886692343239519 4.289988384076671 29 49 38 0.86904131318820643 66 231 28 58 26 51 53 144
1467 0.37153293879314886 1.6087894710600696 3.4786634151590676 111 141 133 0.77580082428002917 65 268 66 167 28 76 27 54
1468 0.46914257980865259 2.029101419031587 3.7833866072743909 156 142 133 0.34893182665230277 29 119 65 355 28 100
1469 0.40026998842443362 0.27169622282991968 3.56617594908368 82 98 68 0.23486209905479336 29 130 28 113 27 95
1470 0.43634130072729732 0.47171633210181274 3.3201366997835597 0 0 0 0.49671895682363448 65 203 66 288
1472 0.31699407869081603 1.8492485335217668 4.2994523247819334 22 37 32 0.65516949928717338 29 122 28 162
1474 0.019194856986120279 0.88060526632823644 4.4138811743114692 0 9 1 0.59916984449832478 29 188 28 182 27 207 51 254 26 172 52 273 53 241 25 192 24 234 23 187
1475 0.41255486954312171 0.68861513473058289 3.4728446708891294 27 57 19 0.85298955701490187 29 216 28 200 27 160
1476 0.82810681369027539 0.98766959877128468 3.5498740616854465 0 2 0 0.89896602620339428 29 217 28 201 27 193 26 154
1477 0.82810681369027539 0.98766959877128468 3.5498740616854465 0 2 0 0.89896602620339428 29 218 28 202 27 194 26 155
1478 0.084302272178580995 1.1935933149275035 4.4817066795111664 0 8 2 0.62553547392871833 29 235 28 212 26 190 53 269 25 224
1479 0.28925758929022843 1.7359680502336265 4.938725775760239 48 49 44 1.0769435067985031 28 222 26 151
1481 0.0089443647403906756 0.90444798656626801 4.5129758184417925 1 16 11 1.2528243182843204 66 345 28 238 27 249 51 284 26 207 52 328 53 296 24 255 23 244 89 341 64 345 22 279 88 331 21 247
1482 0.27833482877431609 1.8505359247067374 4.5797400893617812 14 28 24 0.88637108305085777 29 245 28 248 27 219
1483 0.49569147637266986 0.13957944791953492 3.815234451367032 199 201 187 0.85975037943459054 29 269 28 252 26 198 52 337
1484 0.50479643767792026 1.5493972121881634 3.4622913496720162 210 236 227 1.2026157016882055 66 447 28 264
1485 0.10475930387232973 1.3334231509075913 4.7145977443046707 0 7 3 1.1487264516560625 29 239 28 270 27 267 26 234 53 295 25 263 24 283
1486 0.054766919221761912 1.1207430589584784 4.0999490695598091 2 16 3 0.90482452001092184 29 308 28 293 27 262 51 365 26 231 53 314 25 259 24 275 23 242 89 349 64 357 63 365 62 326 22 287 21 282
1487 0.055698991132308417 1.1207061821303967 4.1006321077375194 2 16 3 0.90192812534330413 29 307 28 294 27 263 51 364 26 232 53 313 25 260 24 276 23 243 89 350 64 358 63 366 22 288 21 283
1488 0.060534018228435738 1.0278166728671954 4.2800658116049553 27 44 38 1.418385422355259 29 306 28 305 27 283 26 239 25 261 24 277 23 253 89 351 64 355 63 363 62 325 22 276 88 352 21 271
1489 0.77729244826934052 1.7289319994532513 3.5961346906669474 31 55 41 0.57915887154072676 29 319 65 515 28 306
1491 0.82789443870108403 1.5535729799320896 3.3700849592781728 95 116 107 1.3840432564407585 65 514 66 483 50 386
1492 0.083322691273694682 0.96429157553670652 4.1970156818279571 27 44 38 1.9516752322408146 66 474 28 316 51 384 50 396 26 254 52 390 53 336 25 275 24 290 23 266 89 368 64 383 63 389 62 347 61 392 88 388
1493 0.17591829715352394 1.1644402397365541 4.0126171546986562 21 44 36 1.484682935667861 29 324 28 317 27 291 26 251
1494 0.029859060423557016 1.0022152299311753 4.5302818269902785 33 48 40 1.7793151814741153 30 75 65 74 29 66 28 187 65 385 29 231 51 251 53 25
1495 0.058372722672372257 0.54193359866110102 4.6757286053409635 162 164 156 3.1245669030825178 29 149 28 206
1498 0.31430615269661211 1.9526112774939273 4.2583315344222026 31 46 41 0.97326603009099055 28 109 27 91
1499 0.11186935798779815 0.51521584455759295 4.5015471277475525 70 86 75 0.33923000647801582 28 41 27 123 26 95
1500 0.11865108798018073 1.3810407476820208 4.275148688239975 22 41 35 1.4320320233481556 28 90 27 148 52 41
1501 0.87048614711737304 0.71980083056419164 3.5309604185779229 197 199 189 0.87829508996351113 29 271 27 225
1502 0.69913103055049031 1.1775369802341249 3.876319504244659 10 36 24 1.2174585173255872 28 259 27 231 52 309
1503 0.41725092706981931 0.85773767070823115 3.4756969892776182 35 65 31 1.5431708195891416 28 292 27 244 26 202
1504 0.39752777945911466 0.30292000324108925 3.5177183695243643 25 42 14 1.4786508131297891 27 253 26 212 52 367 25 252 24 272 23 248 64 374 22 300
1505 0.4550611892229553 0.67314579748698922 3.463468510596698 108 131 102 1.3656586904338071 28 278 27 255 26 200 25 235
1506 0.45661094402472768 0.67610935734857203 3.463151568831861 108 131 102 1.4981042669348779 28 277 27 256 26 199 52 338 25 234
1507 0.12384477312795289 1.4096879569271163 4.885376394654048 43 45 40 0.51368666251093709 28 297 27 285 24 287
1508 0.87184827841444867 1.2654899434569502 3.6379954943142789 7 33 20 1.9511326726747245 28 320 27 294 26 252
1510 0.81766779556852009 0.67231924353529782 3.5377763946354932 125 151 121 1.4849293921235451 29 321 66 482 28 309 27 280 31 421 30 369 67 357 51 378
1511 0.076499131495084138 1.3513423530776998 4.6729591123179723 10 26 16 1.100742909110263 66 313 67 55 51 281 50 224 52 341
1512 0.29919707068467832 1.2549498076959886 3.5196326371213296 45 80 73 0.40583537199255826 68 107 67 139 49 33
1513 0.28007149527301978 0.25326178082373108 4.0421584350669164 26 51 21 1.1194626423802783 66 382 67 303 49 341
1514 0.099507022602332795 0.54250283251049325 4.1987743035661351 22 54 43 1.2646359556994664 66 339 67 307
1515 0.044872289986701674 1.2246934319889979 5.0232780727675221 35 46 40 0.96645876055028679 66 478 67 337
1516 0.81614921458840106 1.5465432042568272 3.5321764723648648 24 48 32 0.99972934964070204 68 380 67 356 69 375 49 371
1517 0.65065504339458768 0.77316543949341243 3.4629542652399219 37 68 30 0.88080957592328202 56 289 38 195 37 156 69 273 68 231 67 176 59 148 4 182 2 157 76 32 6 170 79 306 75 153 7 37 54 228 55 228 31 139
1518 0.070128214828700131 1.2290168352087765 4.455546350193897 38 58 49 0.12404639731283601 65 248 51 18 52 163
1519 0.037375549135230779 0.9774206725202379 4.5581982524060214 24 43 31 0.97423354453652511 65 73 51 19 25 51
1520 0.055692783090418418 1.0664211871154292 4.227772017561338 35 59 46 0.21645977475081021 28 69 51 34
1521 0.068127058069840429 1.0691305575563581 4.1819837045091166 40 62 50 0.5665615303733158 28 67 51 37 50 231 66 237 25 115
1522 0.014802145477708917 0.85718363734556902 4.3812394276995636 33 59 52 0.29183202168945049 27 50 51 132 50 17
1523 0.44586744971423614 1.2542265617747947 3.670984851997563 5 25 14 2.1922828328794357 67 328 51 151 50 160
1524 0.27024278919429029 0.23286685169471366 3.9941941463332382 14 41 12 0.45549149345796897 27 10 51 154 26 20
1525 0.95603358897246193 1.2439902065753017 3.6262871257206339 67 94 85 1.1215542981849365 67 127 51 180 50 206
1527 0.016737107944856167 0.87576937458681048 4.3260327439013873 0 13 2 0.49811754084517257 66 230 51 201 50 229 26 101 52 226 25 168 24 183 23 157 22 114
1528 0.059605971798513513 1.0628770524951183 4.1456486118762292 38 60 48 0.28235938225163032 27 175 51 204 24 136
1529 4.0022970536590536 1.6533850478887973 7.9128592577674395 1 25 1 0.89668386047519277 29 162 51 213
1530 0.27037785119786129 0.27540599624603662 4.1202849843448517 21 43 16 0.52688268549916828 27 109 51 216 53 216
1531 0.33056520358686464 0.2276781300863043 3.8369025485385144 55 82 47 0.61862180480812301 29 9 51 230 50 178 52 248 53 173
1532 0.36482582480455161 0.24808803914146837 3.7462571893123013 28 56 16 0.4614265637702733 66 203 51 231 50 187 53 96
1536 0.016535892469376257 0.94098146874989075 4.8031686840497914 0 19 8 0.41493852217687149 67 115 51 283 50 264 52 342
1537 0.066022992465661401 1.1502675800402136 4.471448898601655 1 20 14 1.3120888976093086 27 266 67 241 51 310 26 217 52 363 53 305 25 249 24 269 49 226 23 241 89 335 64 331 63 296 62 276 61 273 22 268 88 292 21 211
1538 0.46953030756081476 0.3041511359659903 3.3302646141489265 175 179 165 2.0994213212039803 28 224 51 328 26 195 52 318 53 292 25 230 24 241 23 223 89 327
1539 0.19265741186607083 0.30398143565780611 3.9116642098488521 84 112 72 1.3525927731818097 28 198 51 337 50 339 67 305 26 201 25 243
1540 0.24395436497773965 0.32889881860130221 3.782100296493156 54 82 41 0.90424354585546296 28 226 51 340
1541 0.26146890424887853 0.3520611583941381 3.6650726657492365 58 86 45 0.82424422911557804 66 432 51 344 50 358 67 333 49 342
1542 0.066837773865357275 1.1496803081335865 4.4161276719135047 5 23 9 1.3398903144633247 28 296 51 362 50 350 52 377
1543 0.22637093090612817 1.2833765852592256 3.5802563700881262 39 69 61 1.345693892928443 65 491 67 329 51 367 50 368 49 340
1544 0.89424055808030123 1.3797975964563571 3.5348424202380211 17 43 34 0.74689263579565157 27 270 51 368 26 214
1545 0.29576531801679584 0.25977659202789338 3.8383779618227107 16 42 14 1.2371603577396262 67 350 51 375 50 381 52 375 49 370
1546 0.052809501636522316 0.99239382485625094 4.7662237528941995 4 27 11 0.51750112974514317 27 293 51 380 26 257 52 387 53 333
1547 0.11882819800955727 1.1517413549134583 3.9858041436073455 27 54 45 1.6335237745448592 66 475 51 385 50 397 53 338
1548 0.051208633703967221 1.0841684117277064 4.4010084348916623 35 53 44 0.6595994172263836 28 77 27 67 51 127 30 181 65 328 29 74 66 111 50 15 67 41 52 169 53 138 25 49 24 83 23 57 22 59
1549 0.0007095376811326326 0.93057999905220279 4.624301745701433 0 19 7 0.1763418590112685 51 122 67 120 50 8
1550 0.63318814774628251 1.7750298247056044 3.5402954090069687 62 79 73 0.04077653623429181 66 323 50 58
1551 0.89486970628966878 1.7399902993252334 3.6031411302217498 74 92 82 0.70203924443666454 67 150 50 82
1552 0.36957662124577223 0.26664553892949816 3.7550378821427719 55 82 49 0.20376992262551522 51 85 66 13 50 91
1553 0.38595847231222019 0.28879009597469052 3.6517726273060127 9 36 5 0.28353236698317691 51 89 50 102 25 5
1555 0.10619851490866417 1.3702163695543224 4.284483246475852 0 16 9 0.92018432545178108 29 100 66 146 50 149
1556 0.075966007386256529 1.0943486049113056 4.0827135684321112 0 18 5 0.12559032954472479 29 57 66 305 50 153
1557 0.31956082537791813 0.24024380926725286 3.8495689257785992 14 40 12 0.074598572507224459 51 167 66 206 50 176
1558 0.86183461734211619 1.6609971516769415 3.525514116846713 78 98 90 0.83257634026419536 67 198 50 180 49 262 68 250
1559 0.39182684130783241 0.29230600846317162 3.6138194028291841 10 37 6 1.1129497031733699 28 8 51 235 50 194 52 252 49 188
1560 0.0074467271350848185 0.85199651731377313 4.3040183765775391 44 66 58 1.4026164219950625 51 134 66 229 67 235 50 230
1561 0.059480875981682058 1.0858740645186258 4.1317571966311757 0 18 4 0.50060375786908595 51 259 50 232 52 276
1562 0.55359244845190481 0.7075702414537075 3.4974623301099257 7 25 1 0.33029199704071555 51 184 50 249
1563 0.21203454732299945 2.0542232339895579 3.8297038746638279 97 105 102 2.037514625270211 51 257 66 377 50 271
1564 0.30158036349001272 0.36373234950846917 3.4829311929207809 28 58 20 0.30030376533494013 66 209 50 288
1565 0.91812258269718616 0.89277940160775837 3.5827904089953178 1 1 3 0.99714293950580135 51 305 50 293
1568 1.1599997739901373 1.8350958987216033 3.760858818616942 173 171 166 0.76779981335422165 29 232 49 331
1569 0.51119289514647548 1.5299333301873848 3.4811254868527102 152 173 168 1.135963499628156 51 357 67 340 50 356
1570 0.40712665227459821 0.24074928644827254 3.6503038751600916 76 104 66 0.42773078183881202 66 410 67 325 50 363
1571 0.13059198578548259 0.90695395747714147 3.9985834771977826 0 27 15 2.0851829087148239 51 381 66 452 50 376
1572 0.92307935475934166 1.0119533596018735 3.6431535477849892 163 163 151 2.1534079467276412 51 377 50 388 26 225 52 380 53 328 49 374
1573 0.39955338866351986 1.1574550197329323 3.827186239869155 6 29 19 2.3933667154073324 51 387 50 400 52 394
1574 0.66214792954854063 1.7440445749767544 3.9711922429901971 39 64 58 0.44845629682114407 51 391 50 401
1575 0.67486696748891051 0.99178433437916147 4.2229318514752299 20 48 10 1.3449005969139665 50 402 52 395 53 342
1576 0.67486696748890984 0.99178433437916103 4.2229318514752281 20 48 10 1.3449005969139769 50 403 52 396 53 343
1577 0.0161584171770221 1.0133877799401212 4.4986113938302443 32 47 38 1.4310409589736246 65 384 29 230 28 188 51 250 51 308 50 267 30 74 29 67 66 235
1578 0.65006748398899505 1.4077425181111618 3.8782773571005587 17 42 35 0.8818153921343469 66 354 50 318
1579 0.69303174003617707 0.49583340815193772 3.558633423560047 20 45 19 1.557225928290304 29 181 50 330
1581 0.036302697288930763 0.96766415284123775 4.3274944522650483 0 12 2 1.0403394587094685 51 30 26 54 52 48 25 44 24 73
1582 0.060540531298427569 1.0636423230596153 4.4151310499261749 0 11 2 1.3507674746725229 51 26 26 58 53 202 25 120 24 142 89 182 64 64 62 48 64 62 22 56
1584 0.42964261687848704 0.3188692050584529 3.5991531740209806 0 9 0 1.5771083933841368 28 6 26 82 25 142
1586 0.068291865053349443 1.1498444329554736 4.595998325913194 27 44 37 0.36591883210647413 27 143 28 84 26 112 52 160
1587 0.47017728896549943 0.27708578279756307 4.0238509796610362 50 69 37 0.85643796730564381 27 104 26 126 52 284
1588 0.072873998838950793 1.1425127874654775 4.0655421212768488 1 12 1 0.41207607152855041 27 176 26 135 25 170 24 181 23 115 89 217 64 179 63 187 62 207 61 227
1589 0.015385385564906928 0.911032945021097 4.5574271131430955 0 14 5 0.43367020688586982 27 62 26 140 52 165 53 26 25 48 24 189 23 125 22 66 63 162
1590 0.067422673407292633 1.0897678851734753 4.070594063516725 1 13 4 0.73945234553008654 27 209 26 170 52 232 53 210 26 99 25 167 25 190 23 40 89 162
1593 0.057622335773897471 1.1552717640373631 5.2776338500507221 92 95 86 2.2571923263789384 51 278 26 192 25 228 24 240
1594 0.44545433604776508 0.69897592066283365 3.5411637208586191 27 51 19 1.1698751349537357 27 257 26 223
1595 0.80437303191084042 1.0272597991817096 3.5893300831268635 200 203 191 0.59010101096353118 27 269 26 224 28 300
1596 0.24541406324996981 0.34370184117219593 4.2509489981940991 190 189 184 1.9482089734213797 27 226 26 226 52 364 53 316
1597 0.017108098758532586 0.90067561147492481 4.3060654943847165 5 18 6 1.8070873382064787 28 282 26 229 25 255 23 232 89 332 64 333 63 297 62 198 61 220 22 265 21 239
1598 0.012405253708336339 0.89605471733392239 4.3101255009414405 5 18 6 1.3539285996553911 28 281 26 230 25 254 23 233 89 333 64 332 22 264 21 240
1599 0.10204597540216931 1.3151316835215612 4.2837132621982636 1 15 2 0.89125797629484804 27 284 26 240
1600 -0.07857932880454499 0.60920554956610828 4.0036005197173647 2 20 4 1.4588548998963784 27 295 26 259 52 391 28 310
1601 0.42277192908625022 0.78608320660772457 3.9527029693411491 4 24 1 0.78005939539656888 27 300 26 260
1602 0.73007713628260684 0.69635237310651465 3.5056376373782694 211 215 183 1.7163772806460438 28 227 26 124
1603 0.091053125108881916 1.3705842161788448 4.2352894654504416 31 54 45 0.46075189501365937 26 63 52 42 25 127
1604 0.18086140393570466 0.54991770965956555 4.2964998536059715 37 64 55 0.34630958141438889 26 34 52 64 53 46
1605 0.34413468609249764 0.36201011156680424 4.3132205139455042 163 182 157 1.8153928733269857 26 28 52 70 53 54
1606 0.059325774901754835 1.0371719697318422 4.4625737254420823 0 13 1 0.48901643004921913 26 109 52 168 25 121 23 59
1608 0.60162588634398673 1.6006499124717277 3.4977408412517117 16 19 10 0.90101480476525719 27 170 52 188 53 164
1609 0.25171933654983458 1.3465016271052168 3.3569479263373676 133 150 144 0.40564370198050126 27 124 52 189 53 81
1610 0.42336754476961069 0.3257829349767325 3.6758856363573917 0 17 0 0.86653855165036864 26 84 50 248 52 200
1611 0.47642328317859955 0.73017740034461687 3.4515710074076269 168 179 152 0.39544128990095184 26 16 27 108 52 203 53 104
1612 0.50766652493006248 0.51221839476402709 3.4053553380961059 3 23 0 0.79416058139481815 26 3 52 214 53 186
1613 0.029533654909571161 0.91474085873205779 4.2987097424622318 0 13 3 0.40325344031851201 27 130 51 202 52 227 53 208 25 169 26 134
1614 0.18951916057755036 0.42364135472797915 4.5946523755743316 163 163 153 0.23284194404573305 50 275 52 231
1615 0.41118574119553303 1.8985820852248283 4.7722662572486589 14 29 24 1.4803630068174687 27 188 52 264 53 232 24 238 25 207
1616 0.21893541946699524 0.30790019318611322 4.0376812652504377 81 108 71 1.8225228462418119 26 156 27 191 52 308 25 246 24 263
1617 0.78023847644859701 1.1328321980149385 3.7937837581215712 171 174 165 0.81637286075404025 26 184 52 332 53 298
1618 0.78023847644859701 1.1328321980149385 3.7937837581215712 171 174 165 0.81637286075404025 26 185 52 333 53 299
1619 0.97556681626592412 1.0726796248762989 3.5952807871784325 177 175 162 1.57674609971395 51 348 52 356 53 290
1620 0.37855369431822672 1.7090108396476733 4.4598241214343206 4 16 14 0.23878069639633293 27 268 52 362 53 303
1621 0.12178311560675822 0.90515810334469515 3.7486511266612252 17 47 13 1.0729510399044775 50 378 52 379
1622 0.14508115891487397 1.2858505413127541 4.109131368306973 31 57 48 1.9730831387550183 51 371 52 382 53 330 26 249
1623 0.020350612536425672 1.2500484426116532 4.9206695352299237 18 46 36 1.4046173270033637 51 379 52 386 50 383 53 332
1625 0.35025870535986653 0.31686361175718647 3.4308446478462065 15 41 6 1.2879738279635176 27 0 52 147 26 2 24 1
1626 0.033669818577057364 1.0161222235825054 4.5500025637052781 33 57 45 0.37359884345032091 26 60 52 32
1627 0.28752972394843962 0.21664081656157663 4.0190132931251448 85 105 70 0.29962460118786799 26 19 52 94
1628 0.011251107944881378 1.0598614602190601 4.4027610891630333 35 56 47 0.32532626805625647 27 66 52 167 53 28
1629 0.23337988620894307 1.5581287033912985 4.7350644397874868 21 47 38 2.1145025279315206 51 386 52 392 53 340
1630 0.091651255943741128 1.1210872466375497 5.0783875522786426 28 54 43 0.81617170779422343 51 4 52 158 53 9
1631 -0.92834701105073136 1.2623078232089489 3.7451927232245334 16 43 34 2.1337557185983833 28 98 53 11
1632 0.1329906768132878 1.3857012553022754 4.7721762686505791 30 47 41 0.85840604657689978 52 14 53 12
1633 0.018375308940583701 0.99252850801152381 4.5565471123694348 0 19 10 0.71178603781314853 52 161 53 130 25 52
1634 0.043327881078959407 1.0958969253390594 4.3726757028672338 0 11 1 0.87807243135355595 26 59 53 139 25 122 24 82 23 54 89 81
1635 0.030449150781095058 0.8545964416700309 4.3530027263748821 37 63 54 0.45996102709388909 26 100 53 143 25 113 24 184
1636 0.26863188965418555 0.4901391475028859 4.3784327652117367 82 102 90 0.36284510275730664 26 33 27 30 52 233 53 150 25 100
1637 0.17593295029066061 0.27136418904645948 3.9098949936814913 18 41 12 0.86583443215537925 26 87 53 166
1638 0.79243879518548044 1.4536481686642337 3.4373231884046187 181 182 176 0.99384147143974222 52 250 53 174
1639 0.62686326297676787 0.95914602280263828 3.5532387009567463 78 94 68 0.8384145481163563 51 233 53 177
1640 0.25203423153563953 1.7780751416420151 4.802366440206872 13 28 19 1.2206405047242443 26 119 52 218 53 192 25 139
1641 0.01277382227229068 0.94205638445632434 4.6014218756371434 0 10 1 1.103058414330325 26 142 53 198 25 196 53 234 24 88 23 129 89 277 64 148 63 43 62 30
1642 0.082960679049294328 1.3424651355072981 4.2227585973110173 0 14 4 0.3469072424345066 26 144 52 225 53 204 25 177 24 143 89 224 23 52
1643 0.20024573829572986 1.6263574229396089 4.8872759352665813 50 55 49 0.94311094296996067 26 180 52 260 53 265
1644 0.27947977615309794 1.8593826668050291 4.5046276985573348 67 67 67 2.2241830585153757 50 265 53 267 25 227
1645 0.3671795171469362 1.8872516048520211 4.4698601003935892 0 1 0 1.656849725765376 52 325 53 288 24 217 23 191 89 275
1648 0.039905203778222431 1.0963422223667683 4.2804101437579911 0 10 2 1.4359268980062569 27 212 51 255 26 139 53 206 28 148 52 171
1650 0.059236993999918053 1.0663034587897071 4.3173984824686027 33 54 45 1.5611283180264017 51 256 26 188 52 274 53 297 30 228 65 426 29 227 28 240 51 313 50 310 52 346 25 174
1651 0.018060256901746063 0.86630171275115475 4.4682448412467091 38 56 50 0.68320376871189048 27 173 26 173 53 240 29 154 66 88 50 151 25 194
1652 0.068890009482291681 1.2584081519437023 4.1359193466796498 1 17 5 2.7238002267431041 26 107 53 142
1653 0.061755163114554035 1.1443752904973103 4.0607859466503369 0 21 7 1.2664476456496438 28 208 53 274
1654 0.53685555901857418 1.8509058448561189 3.611033097137037 0 13 9 1.8051365973806757 31 185 78 35 79 267 4 233 6 284 77 53
1655 0.028125254425875046 0.96607050732198574 4.303071970129694 33 50 39 0.89507377666696686 27 52 25 43 24 71
1656 0.088874693940861615 1.3413337750946959 4.1948959946218238 28 48 37 0.54008300196503978 53 32 25 123 64 83
1657 0.055551975305085211 1.2609622146409643 4.6053662672327489 29 42 38 0.31242111708895404 52 22 53 125 25 131 24 95
1658 0.089371924346378695 1.0642204635453865 5.2044526428557978 36 51 46 0.94661824677607842 52 4 25 135 24 158 23 143 89 205 63 140 62 125
1659 0.026569570309110002 0.85539802975234069 4.3956764873836152 30 49 43 0.36899763428956167 26 102 25 171 24 72 23 160
1661 0.05816235774770534 1.0864404387173288 4.1226668833805915 0 10 0 0.49292507137382069 26 171 25 191 24 206 89 262
1662 0.46997870639204431 0.33953273198385536 3.2823263684059474 222 224 213 0.1940217149398677 27 220 25 211
1663 0.051530020429021939 1.0773723368734165 4.4421901408435591 26 41 36 0.77693928546461555 53 272 25 223 23 216 24 211 89 274 22 168
1664 0.4108305650233034 1.9404332474862298 4.8038467422275675 60 63 56 1.2380433466292244 26 181 25 229 24 221
1665 0.44645969226315479 0.3753025861438396 3.2631728557906223 218 218 218 1.1574124977933133 26 196 25 231 24 222 23 199 89 313 63 345 22 256 88 340 21 264
1666 0.26491169867335052 0.19128950503928013 3.5366414114894509 215 216 211 2.0495755968697233 26 197 25 232 24 260
1667 0.96602104850177728 1.2199995241215078 3.4519467248939177 200 201 195 2.2047541818404452 27 245 53 284 25 236
1668 0.37715355808534173 1.8164458815312885 4.5638357254505753 5 28 20 0.44268313610123639 26 220 25 240
1669 0.29739708240152624 1.4874035658612097 4.9828581542143366 54 60 56 1.1741984832331398 26 244 25 265
1672 0.053835186637050281 1.0150656300580247 4.5244491972527516 25 45 37 0.46722344626415974 52 166 24 145 23 62 64 49
1673 0.078718064835156087 1.2310118345056238 4.4632081759209932 30 47 37 0.4103149892349669 25 129 24 147 64 59
1674 0.45636484694071011 0.35313573998144915 3.3027258254790506 27 39 19 0.70351574059254951 24 198 23 200 89 315 64 320 63 317 62 301 22 257 21 266
1675 1.2524867802091613 0.72886403436945879 6.2439548885974405 0 0 0 1.9324591015167327 52 300 53 266
1676 0.078104643506327676 1.0775311194148409 5.1643369174645093 0 11 3 0.8537981373995045 25 200 24 219 23 198
1677 0.50500599787395972 1.2205155145309752 3.9299979627932267 125 144 133 1.3777093079941707 25 219 24 232
1678 0.21496994441070666 1.4044561423925468 5.1246934730493594 48 53 47 0.65589045589963879 25 204 24 239
1679 0.004084021831409268 1.0165597864108813 4.6931032523972611 2 16 2 1.9169167300150263 25 278 24 293 23 268 89 370 64 380
1680 0.94304054365923862 1.0180474599183331 4.2110425378648477 24 46 10 0.91049232745641628 25 284 24 296 23 272 25 283 24 295 22 317
1681 0.3266486081886199 0.33781894462163631 3.5042727248667318 36 51 32 1.0580048165564602 24 115 27 96 51 238 53 183
1682 0.72321663385581259 1.5352489088185437 3.5044844729977034 3 29 19 0.19331587996633651 50 175 68 191 49 84
1684 1.0504057435351355 1.3024641388167255 3.5428233931347326 70 89 83 1.7081401534106644 50 215 49 141
1685 0.56160341457637941 1.693598989214729 3.4758889568688804 42 69 62 0.70153815554311982 67 256 68 204 49 250
1686 0.42479662171657451 0.30063022633250058 3.4869269127010849 74 106 67 0.40520955338130427 50 211 68 269 49 257
1687 0.57799378994548156 1.5940729427678308 3.4626454206690904 0 11 5 0.51086318314875301 67 254 68 296 49 288
1688 0.74574929172784565 0.22109499931632134 3.8616392069951369 51 75 46 0.42474859176588176 67 261 68 349 49 318
1689 0.59870981287433866 1.6314097564397554 3.4870417255023609 10 37 18 1.3045304147224877 50 380 49 359 44 429 45 409 46 377 40 521 4 403 2 303 42 333 76 192 7 463 54 566 8 467 9 418 55 465 82 274 10 432 81 149 43 490 78 165 80 100 83 717 6 397 41 368 5 350 79 497 56 456 3 347 38 321 39 435 37 250 47 381 57 245 69 363 48 211 36 230 58 178 68 374 59 310 75 332 1 279 31 382 30 324 65 472 29 281 67 349 28 237
1690 1.032598736807798 1.4866845609328552 3.5495332453121082 78 107 102 0.11381441988472457 68 180 49 132
1691 0.25999281636576271 1.378077870224623 3.3904539964054785 28 45 35 1.0786866232202301 24 230 23 176 89 252
1692 0.14811580224672635 0.57188162364922046 3.6323157538633777 39 63 31 0.70169574801763235 24 248 23 205 89 331
1694 0.46271087349031004 0.35906633836830115 3.3026617777648428 17 37 12 0.51504006445655626 23 225 89 314 23 201 64 319 63 316 62 302 22 258 88 341 21 265
1695 0.2813935596185082 1.7501577157166661 4.4209146398946677 110 122 120 1.6119884383094227 24 281 23 245 89 342 64 354
1696 0.054440350913878999 1.0294286711319296 4.2832471982991436 26 49 41 0.91089965361310732 24 278 23 254 89 352 64 356 63 364 22 277 88 353 21 270
1697 0.101614588797454 1.2814143476796673 4.554651827656941 20 43 35 2.1667327090138091 25 270 23 261 89 362
1698 0.17351441766989195 1.3293462722604026 4.2743613715598601 3 19 8 1.662202155645073 89 369 64 381 63 388 62 348 22 310
1700 0.98864879291059404 1.0419941010594482 4.2155325889844306 17 41 9 1.5193179385502731 26 262 23 273 22 318
1701 0.42737296646705214 0.42088762515467348 4.7205242037953248 24 41 31 0.33507744035331044 23 45 89 66 62 33 63 161
1703 0.031953715272267535 0.85886967783299717 4.309822922256064 32 51 45 0.22932760960860923 23 119 89 169 63 69
1704 0.094312629226799227 1.3674898359115994 4.2822799338765218 0 14 2 0.91583656835747662 24 87 89 179 63 179
1705 0.59595307306718082 0.98522824827491817 5.3903529210221199 1 2 1 0.90310049348737276 23 221 89 197
1706 0.31125192012620762 0.38368490408327505 4.5594717493523289 57 78 69 0.60880899031548164 23 114 89 216 64 222 88 248
1708 0.36942774021681812 1.8885184026263024 4.4615783120132528 1 5 5 0.090066877655756827 23 192 89 276
1709 0.043379796177468011 0.64934894738583959 4.7709193865504824 36 60 54 0.68252795886693918 23 166 89 278 64 214 22 135 62 130 21 177
1710 0.27191488170342187 0.51999426273640603 4.7983847818230618 35 52 46 0.78488874713059276 23 164 89 302 64 326 63 256
1711 0.24168450627748528 0.5519370040718965 4.8510309755230159 24 41 33 0.66407283726995292 23 188 89 303 64 324 63 322 62 272
1712 0.27361836150284202 1.2831228597399278 3.3872981792416947 170 177 169 2.0440812956129837 24 250 89 317 63 344
1713 0.97479554729294671 0.38478092532795788 4.656159484929181 160 162 150 1.0267309228145576 89 321 22 244
1714 0.63704391736881549 0.35396335901138476 3.4716015247555161 167 173 159 0.13186732369965543 89 328 64 349
1715 0.575797450008662 0.32165802133588878 4.6181079856638343 30 52 39 1.8656177533783704 23 239 89 340 63 374 62 334
1716 0.032016824134962985 1.0599547564152019 4.3399281908144278 38 55 47 0.4472038735463405 89 78 64 70 63 66 22 52
1717 0.050810827012840343 1.0760424348453137 4.2606896179791924 39 60 51 0.36497896134389696 25 45 64 79 62 67
1718 0.050809220397798893 1.0415616509444363 5.0830665204270513 0 10 4 1.5602688613501468 89 246 64 127 62 126
1719 0.69521504997738692 0.28161143732277583 3.6849227689102091 25 52 19 0.30517660036844985 89 125 64 197
1720 0.024064318135578688 0.99364052209444331 4.560189856163066 0 19 10 0.42740689528988163 89 231 64 220 62 138 61 162
1721 0.29697265986335053 1.7417416085437623 4.3537509049148513 26 49 44 0.41094904062092857 89 272 64 230
1722 0.23499842662459505 0.29641324691946536 3.8872170764860687 46 78 37 1.5906080107223985 89 251 64 243 63 233
1723 0.053568327153094675 0.68209586650116849 4.8293806535997881 43 71 67 0.5415539408468143 89 280 64 260 62 129
1724 0.25749180075587841 1.8817833609006316 4.7749566124711755 51 50 45 1.4081650918797981 89 283 64 267 63 261 62 241 61 274
1725 1.0578374749140766 0.48085771894924506 4.6003747177750531 140 164 151 2.3469052170425417 89 255 64 277 88 322
1727 0.18525159516380657 0.52855099002719497 4.7880182187655587 59 92 81 0.907828965750897 23 165 64 299 63 218 62 194 89 91 22 215 88 294 21 250
1728 0.33371262358652054 0.23200444798634881 4.0736611913501939 48 85 44 1.0777065367415779 23 208 64 346 63 335 62 296
1729 0.29079464045898434 0.35398071699093592 3.6155342767675487 39 70 28 1.3752586432987948 89 345 64 359 63 370 61 386
1730 0.068211130090660599 1.1056966768579262 5.1209271832239365 2 17 2 0.85030601934872008 89 363 64 360 63 360 62 320 61 369 22 299
1731 0.15913131105362208 1.4582260017817052 5.0151999929777116 1 1 1 0.4897351936767545 89 357 64 361 88 373
1732 0.18660627639834371 1.4130630832814752 4.9073167343314514 29 49 42 2.2297335293790499 23 262 64 362 62 321
1733 0.058140790864884662 1.0274885740912396 4.7998447227779852 2 22 10 1.1891518470766207 89 366 64 367 22 298 88 371 21 297
1734 0.0079472667760503435 1.1038338606783957 4.9255718591354345 23 48 42 1.100938784190185 64 375 62 340 61 380
1735 1.0686701862611407 0.55899215691986037 4.5272272076226114 229 245 245 1.4514776988462315 64 382 63 393 62 352 22 307 21 316
1736 0.32531642721002174 0.28271980414284753 4.1246558654001619 25 59 26 0.92934931329804227 89 365 64 384 22 309
1738 0.22189718584251084 0.5095717087027658 4.7915564509171231 16 39 29 0.47920843362628873 64 140 63 27 62 17 22 129 88 194 21 172
1739 0.24347349173978822 0.52735434976901296 4.805670595005032 16 39 29 0.25516959648861354 89 83 63 28 62 18
1740 0.90886520992071962 0.58880553138191549 4.9182659330718534 68 85 75 1.2626510829970474 63 50 22 122
1743 0.8072585014927165 1.5878312464956439 3.5415431739541066 88 107 98 0.31217226746741261 64 112 63 124 62 116
1744 0.33679738260366526 0.57999778642174227 4.9137715125740185 82 107 103 1.2926650403501532 64 261 89 90 63 149
1745 0.037715927620635692 0.96665537491757059 4.3046995499095813 34 57 47 0.61498152682172236 89 268 63 176 62 56 61 174
1746 0.11636466857307445 0.73393347777543549 4.9728980501003006 52 83 77 0.6472409776708149 64 256 89 194 63 214 62 4 22 224
1747 0.61574062439938715 0.36185074600108036 4.458725860863006 60 97 88 0.34517930904867883 64 231 63 226 62 200
1748 0.52160918755002472 0.48956433868034643 4.8416293725367465 92 122 112 0.18593412950915725 64 328 63 257 62 235
1749 0.097663195991560814 1.3549989018834503 4.6641939771846568 1 15 5 0.8838198038401589 64 329 63 259 62 238
1750 0.22966567318456674 0.78610136713864387 5.0422476503879157 21 48 41 1.2722018364014196 64 323 63 291 62 268 22 270 21 286
1751 0.18834546730396695 0.50957374624748641 4.3126704545389085 6 38 27 0.36602065104187359 64 303 63 298 61 307
1752 0.26198090669070828 0.35874637074274041 4.203631368294837 41 76 46 0.60381258435870799 89 258 63 301 61 310
1753 0.71751896485286482 0.89424789771158242 5.3054878662833573 43 74 68 1.4183582840022499 64 322 63 320 62 270 22 282 88 363
1754 0.39738488818193202 0.7138937136346496 5.0587739498394368 74 100 100 1.4048962621147343 89 324 63 321 62 271
1755 0.4706569673523987 0.40179174541038609 4.7334991296890818 77 108 103 0.55536017695509143 64 344 89 300 63 324 62 288 22 275
1756 0.62032287068322001 0.19701096754260167 3.7959112374705963 197 226 198 0.93724228117413455 89 290 63 337 62 297 61 361
1757 0.62032287068322001 0.19701096754260167 3.7959112374705963 197 226 198 0.93724228117413455 89 289 63 338 62 298 61 362
1758 0.34497970952535278 0.3449714575880829 3.5256833928738556 38 69 30 0.38326409186631638 64 340 63 342
1759 0.0016213397698089937 0.94449235661680042 4.791439277909098 5 21 11 0.97728921177374628 64 363 89 344 63 347 62 305 61 262
1760 0.63651376206209176 0.3069165464631301 4.1872375869689007 63 99 56 1.6920464278982108 64 366 63 367 21 293
1761 0.18974158933697174 0.65504566621629157 3.6095798684957519 4 27 0 0.97658416804710968 64 347 63 368 62 337 61 373
1762 0.37918037841138763 0.47489647771992699 4.7247041719720482 30 57 41 1.9744192023447511 64 369 63 381 22 303 88 393 21 318
1764 0.80894839232045346 0.78392414878918837 5.2180237017600186 69 100 94 0.82337650745447488 64 385 89 373 63 392 62 345
1765 0.061791383065152305 1.6260776543191164 5.1289184758195878 0 0 0 1.3591626996684658 64 390 63 399 62 359 61 406
1766 0.77794935264708998 0.89931867054145065 4.3063733832707882 42 77 35 1.407778172453134 63 401 62 362 61 408 88 406
1767 0.77794935264708998 0.89931867054145065 4.3063733832707882 42 77 35 1.407778172453134 63 402 62 363 61 407 88 407
1769 0.23824803135107075 0.49161801218792878 4.7436368116097869 67 97 87 0.37131713230160174 63 34 89 76 62 24
1770 0.26020525012176016 0.46079913218795976 4.7482952801132745 48 71 55 0.32160345483011343 89 75 62 25
1771 0.032261468147395278 0.56524249840884655 4.4879710933071344 67 98 92 1.2821226822163068 63 46 64 53 62 36
1772 0.070686299239720307 1.1257103502146379 4.4339145883436206 0 10 2 0.85706161042402296 64 161 62 49 22 127 88 82 21 66
1773 0.18683618205255481 0.44382363294794491 4.2312901596792356 32 66 50 0.67135029568856308 63 181 62 70
1774 0.75088435015358534 0.17370457225126576 3.7979756827666558 130 146 120 1.5069411112093707 63 106 62 102 61 92
1775 0.27403329079011801 0.40411327870954672 4.6203246567027234 6 32 19 0.35998502874695659 63 163 62 137 61 158
1776 0.57006236876181127 0.21315011323341548 3.735771351533355 51 86 46 0.36971536406976019 63 105 89 127 62 163
1777 0.90170468207724708 0.3359845654139369 3.8214673807389579 178 204 169 1.0660138623735558 63 107 62 164 88 130
1778 0.62547875506129746 0.30319077160497965 3.6346354505961429 138 168 132 0.14384277986838345 63 112 62 171
1779 0.67937227269518563 0.36943146533769677 3.6182373833363868 130 162 125 0.49695830616228881 63 116 62 174 88 126
1780 0.67937227269518563 0.36943146533769677 3.6182373833363868 130 162 125 0.49695830616228881 63 117 62 175 88 127
1781 0.081267410663020123 1.1046444970123221 4.07496574487429 0 19 12 0.3681489286167563 63 90 64 238 62 206 61 180
1782 0.64267607698096296 0.29581876629530585 3.5764671534563504 146 172 137 1.0404753755135607 63 199 62 223 61 323
1785 0.8017445037954043 0.22164789392741996 3.934691756063005 37 59 36 0.49063932446122488 63 275 62 253 61 343
1786 0.87129304612961822 0.32014079484219371 3.7489468164250486 135 155 119 0.1027081832061983 63 280 62 256
1788 0.30015438370977776 1.435371550676513 3.3602140853956168 180 181 176 1.7961711315718765 64 315 62 263 88 311 21 233
1789 -0.36014773452668736 0.68104215478144625 4.8718407498665597 62 66 59 2.307033927926371 63 289 62 267
1793 0.73833442460454102 0.20924718535729658 3.8357245406761313 25 52 23 0.14534405385119775 63 340 62 299 61 374
1794 0.20838905964130486 0.85465236645165321 3.7065032495632639 6 32 5 1.1762750258580283 63 351 62 314 61 384
