# 3D point list with one line of data per point:
#   POINT3D_ID, X, Y, Z, R, G, B, ERROR, TRACK[] as (IMAGE_ID, POINT2D_IDX)
# Number of points: 398, mean track length: 5.0067934782608692
1084 0.33368912063201134 3.690013117668006 3.9286676126504725 26 48 13 0.53064040504796828 14 219 56 222
1085 0.51503881242307592 4.7066645053318528 2.9697845807788088 176 180 173 1.4294627631555008 15 236 57 428 56 223 16 203 17 177 38 314 39 342 37 272 20 154
1086 -0.20911792904884574 1.0270648181960325 2.7412706742875681 49 77 40 0.85275550149826307 57 451 56 225
1087 -0.14191068514467792 1.84633774658044 3.3166395694233879 165 168 161 0.52330197333492745 60 300 56 234
1088 -0.12510978351663854 2.1836597146866392 3.2173985284988831 46 79 40 0.74357098184770687 15 244 56 236 16 212
1089 0.1278446302337779 3.4727628424121089 3.0990167262200652 39 70 29 1.0319458618264659 15 247 56 241 16 235 17 199
1090 0.18443221585028943 3.1279778073806725 4.4924651911542899 90 95 86 1.3447695416919589 15 229 58 189 16 225 39 349 37 265
1092 -0.077382892689703303 1.0840404481168371 2.5730602194155656 191 198 190 0.27890091793788868 57 452 56 255
1093 -0.032185022459493354 2.0435492228957379 3.122277342826453 84 113 73 0.027118249949938163 15 261 56 260
1094 0.23386955350862576 3.266637790301739 3.8236586925586611 101 111 100 0.31319202416299641 15 249 56 266 16 220
1095 0.22124825138762333 3.2692710357182238 3.8332889386047393 101 111 100 0.82970029978173476 14 270 56 267 16 219
1096 0.2253781968070141 3.0226274953219838 4.0052954136799652 0 0 0 1.5580591049768959 15 278 54 236
1097 0.87601572074475142 3.5247931250998286 2.7562070803848862 30 55 12 1.6911466771004597 15 290 56 292
1098 -0.12005806809062175 2.2381354050977067 3.4266639992581833 21 49 11 0.96186971619549444 15 296 59 261 56 304 16 280 17 255
1099 0.1092050585917614 2.9580511131467691 3.1908384268360779 25 53 12 0.83139355565635609 15 304 56 307 16 290 18 221 17 252
1100 0.22904155173751178 3.5342407760163592 3.2802511332476252 14 46 7 1.7991737076546055 58 255 56 309 16 293
1101 -0.27136044950751131 2.8902207070838828 3.9269874079553064 24 52 12 1.5594580766568769 15 310 56 312 17 264
1103 -0.024487701585364632 2.3737521185059034 3.45238089411197 73 95 56 1.1206178528772526 25 469 54 334 13 393 12 360 53 487 14 316 55 288 55 289 58 232 15 283 56 294 60 399 57 504 58 231 16 261
1104 0.11991749755826681 3.60518533941107 3.1296978542325853 54 76 46 0.25052246337299616 58 127 59 27 56 139
1105 0.27460974760829893 4.05943585949945 3.5486854843491678 1 2 0 1.2462459294389236 58 166 56 249 38 268
1106 -0.10934692486876707 1.0011413104475348 2.8669921638962501 28 40 28 1.1183752216585374 57 223 16 1 37 162
1107 -0.11316224931039151 2.0269665745370755 3.1196307233071723 27 58 17 0.32877517441170423 56 19 16 19
1108 -0.063532500965017863 2.4232172808430241 3.4079352828487481 70 97 56 0.41067121365114811 15 33 56 31 16 39 17 31
1109 0.10408086753729832 2.4362594352175999 3.5535316744727155 62 86 46 0.38361728724202715 56 41 16 50 20 81 57 114 21 105
1110 0.211591887768596 3.0603150283851566 3.2030330646928835 68 95 52 0.3588053285184013 15 64 58 45 16 61 17 49
1111 0.20336970491294645 3.7675758735703746 3.2395933639770051 84 110 67 0.41169099809177873 57 187 16 73
1112 0.13824697266029223 3.508652136774761 3.5441323638122588 42 72 36 2.1405118046438054 58 54 59 113 16 75
1116 -0.20510329401785615 0.9430300054532319 3.078728387152684 193 194 188 0.35789644636827439 57 388 16 167 36 266
1117 -0.13511368175725683 1.033889763062608 3.039844416196626 192 192 192 1.2742602784995303 57 337 16 169 18 142 19 204 20 182 21 177
1118 0.19381432479863764 3.6833628012457833 3.6324949439241587 57 82 53 0.91128330080829334 56 182 16 197 17 126
1119 0.30836871945974087 3.8059314300862535 3.8845049555123987 25 45 18 0.85331256062374017 57 331 16 204 37 211
1120 0.48924056004913802 4.7101387194215185 3.046833618857308 172 176 162 0.88836097396510449 15 206 16 226 37 271
1123 0.20531193406597537 3.7985759415698475 3.3174336147577961 67 88 44 1.556717021810212 15 265 56 270 16 247 18 192 38 309 39 334
1124 0.26386575571481152 3.7556224658019652 3.5836207863662217 0 1 0 1.2937818081577783 57 470 39 381 37 322
1125 0.24066771003334669 3.9067247670791061 3.3462822420229452 26 53 13 2.0851387018209135 58 239 59 230 16 272 37 337 36 320
1126 -0.22459971724944389 0.98124390860985355 2.9280405698460905 0 0 0 0.90764727581795102 56 300 57 512 19 262
1130 -0.097272559734013192 2.4559858108652164 3.3834495240038756 23 55 13 1.2635571677646913 15 269 56 276 57 489 60 379 16 243 39 385
1131 -0.037507527012544561 1.9299848334546041 3.1140984835625041 28 60 20 1.5668407139366771 60 394 57 515 59 253 58 243 14 329 15 295 56 303 16 278
1132 -0.43864152185477179 1.1093279079834615 3.1312068441340397 0 0 0 0.31459404006465086 14 341 55 305
1133 -0.43864152185477179 1.1093279079834615 3.1312068441340397 0 0 0 0.31459404006465086 14 342 55 304
1134 0.49527391356687678 4.6843589972526818 2.9520290004717058 4 14 4 0.57294895113590449 16 93 18 12 19 1 20 91
1135 0.20727897367052847 3.8075972756113656 3.2660901477723669 84 109 72 0.22543416512367065 56 143 18 31
1136 0.13966786343959958 2.8905120767518224 3.2324371534721745 13 41 0 0.31308477098538995 15 54 18 37 19 121
1137 0.13966786343959958 2.8905120767518224 3.2324371534721745 13 41 0 0.31308477098538995 15 55 18 38 19 122
1138 0.10350722859064625 2.4318429295051955 3.5909983387800004 64 87 48 0.34372102282410671 57 118 18 67 17 67
1139 0.11304692772357364 3.1486421216903904 3.1201938781374352 52 79 36 0.36352053390326722 59 94 18 86 39 164
1140 0.12830576815142455 2.8223246468798457 3.2970708011677514 19 41 1 0.78367537634490692 16 186 59 54 18 97 17 169 39 361
1141 0.16667535576689316 2.5388260037511787 3.5628323828838129 70 87 43 0.50680556402152543 14 119 15 129 18 105 20 114 16 122
1142 0.16598068695089277 3.4382494176590139 4.1231453246919116 0 1 0 0.014918843193248019 59 122 18 109
1143 -0.11076975545055742 2.7305685540945452 3.3061382635029108 47 78 31 0.76419690431910348 16 214 18 171 19 212 39 374
1145 0.34473912537254431 3.7311034242090892 4.003860644006318 87 87 75 2.009243669758261 60 310 18 179 17 214
1146 0.42805396906859905 4.5347530483832532 3.0589031722550128 175 181 171 0.81302952551310648 56 251 18 189 17 223
1149 0.27496115969396262 3.9196072574347474 3.9265863798150695 119 127 112 0.25876181787898189 60 339 18 197
1151 0.0065917006275252876 2.3547511794255298 3.4411437709419692 86 110 70 1.3067962890910514 16 262 18 210 17 245 19 244 38 376 39 408 20 257 21 267 40 205
1152 0.06076342184756419 3.3191440162997554 4.0750550117521271 96 104 93 1.4895102998276541 59 255 18 219 19 239
1153 -0.026036565543278614 4.1435425858123107 3.86616508014367 0 0 0 1.1390791933593225 59 178 60 259
1154 0.11328286199722735 2.8960948180448347 3.2249006182526081 64 89 47 0.37847328169198863 57 265 17 38 19 36 38 147 39 63
1156 0.29392772588079918 3.110117470011394 3.2647948099719777 77 98 57 0.71873657468771268 15 68 16 125 17 70
1157 0.16276409597226718 2.5245862289576579 3.5893317175061794 20 45 2 0.19331966785960533 16 59 60 176 17 72
1158 0.21466025131946428 4.0153510668642935 3.3222906319510903 39 58 30 0.66380194605144449 16 129 18 39 17 78
1159 -12.710726629692713 13.489354035676158 16.041886274317001 98 100 89 0.67817904795879835 16 96 17 93
1160 0.12591513191226092 3.4214324587710134 3.0721269080370721 55 78 42 0.94885784150643526 16 150 18 16 17 113 37 52
1161 -0.042655377053653951 1.8808352097870755 2.9965806349000408 37 62 27 0.65526452491934306 16 172 18 84 56 157 17 135
1162 -0.074253268496258795 2.4626916081787447 3.4165166252684607 17 45 1 0.64754035481743633 18 100 60 207 17 144
1163 0.080357717428423278 2.9282485097045412 3.1865023366842333 22 51 6 0.44852658990379241 16 184 17 145 39 282
1166 0.18759126881460592 3.8999041105848433 3.2905249094594025 43 62 30 0.10883297285642159 18 147 17 204
1167 0.34560087262194306 4.7011177152507813 3.3602907863809142 147 153 139 2.1916719668366302 16 206 17 210 38 271 20 188
1168 0.067348011566024241 2.5859908725789258 3.4152523379514896 68 86 48 0.60169701598973502 18 196 17 217 19 220
1169 0.18144792846470051 4.0153075260576117 4.0438761894157818 108 111 97 1.1956472144542309 57 449 17 228
1170 0.2291856944904386 3.2320072971156244 3.2025836769553893 20 49 5 1.6372000975044212 18 190 17 233 19 193 38 302 37 281 20 163 21 156
1171 0.15153360041408676 3.1572143762036378 4.120525862020763 0 0 0 2.5258865571728171 16 249 59 246 17 243
1172 -0.040405585578002987 2.6579524940780539 3.3486691793625694 23 51 10 0.65892454166814785 18 215 17 244 39 407
1173 -0.4385576012554892 0.9533914735843434 2.9289567925675151 161 174 147 0.59116558228595206 18 214 17 250
1174 0.52644474841245992 4.5656121544249455 2.9791762215157984 0 0 0 0.23157558408846032 18 226 59 266
1175 0.52217101042876735 4.5643038839900107 2.975620598363407 30 49 18 0.80405975692748044 18 227 59 267 38 386
1176 0.0074820716592475037 2.4482798031179684 3.4223308665265488 74 99 58 0.66149505369998207 58 32 15 123 16 147 17 39 11 41 26 151 60 115
1177 0.017399745039463364 3.3991679584187096 4.2896602183090007 0 0 0 2.1243373740815992 16 291 17 261
1179 0.10996780337004221 3.1506272223685201 3.1213529589282665 55 80 38 0.41278412949995674 59 95 19 12 38 145
1180 0.060716966685612855 2.7052942018280866 3.3161639814098027 65 90 48 1.1411850689230474 15 48 19 47 20 48 21 86
1182 0.11082248994564951 2.5382852584144646 3.4665544521044911 21 43 4 0.048160317203318287 60 125 19 80
1183 -0.31858550243070266 4.2789079155756244 4.472008770857955 19 34 11 1.3296497214029079 16 95 19 94
1184 0.29113493764569331 4.4192931103148805 3.4018032788505437 73 96 59 0.54028926425273349 16 133 19 110 37 172 36 117
1185 -0.032963191576469139 1.6609691352789286 2.8681228221067769 92 109 77 0.71870557136526625 18 83 19 118 17 157 38 31
1186 0.22721378855788779 3.0248127414382209 3.2407949266143081 30 52 13 0.40968364336900137 18 95 56 59 19 120 38 212 39 237 37 143
1187 0.01430558821119076 2.3204199552073925 3.444970077652469 63 84 45 0.9980373425254504 18 57 19 130 21 100
1188 0.12924432797910151 2.5381590136042136 3.4788701888323912 68 83 47 0.24996847991245746 60 271 19 154
1189 0.43238426960398829 3.6361206467240397 3.3978706094622666 4 3 1 0.41648559747308322 18 153 19 169
1190 -0.34824687975337948 3.1992179159645389 3.2096092709077029 194 197 190 0.70068316012927845 15 224 39 279
1191 0.23012791214949224 3.3067076012096956 3.1956978846496247 81 103 65 0.50724601125327995 18 169 19 191 38 258 39 329
1194 0.15657063373300029 4.1126174099141135 3.4432337351135311 34 59 20 0.59721744430821344 17 242 19 241
1196 0.1455214870592732 2.8272014491171276 3.7197258536165005 25 52 12 1.3164920736085195 18 228 19 263
1197 -0.10538343712976728 3.1290823775841607 3.5520233082359995 68 89 48 1.3127147060752586 17 267 38 400 39 429
1198 -0.042841091927767527 1.8840089013157622 3.0020265172382388 78 92 67 0.38070696984964925 19 38 38 34 39 14
1199 0.05247433731681822 2.5446942909831991 3.420580548292631 15 42 1 0.68453927869695086 17 47 38 82 39 165
1200 0.15328158781650841 2.8064081342034801 3.304485477261224 19 47 4 0.19118173670296879 60 109 38 91
1204 -0.048138798059600904 2.4323315966468537 3.3984165731900902 21 49 8 0.86719852914927009 19 72 38 140 20 69 36 54
1206 0.20366470627836972 3.3145117381867371 3.2170689389915523 33 59 20 1.5029455723145808 19 117 38 162 39 175
1207 -0.28826036191044924 0.89920978396228579 2.9232051609159564 193 215 179 0.17225492039870971 19 128 38 179 37 263
1209 0.22062361807723596 3.8275119172484775 3.620387379325309 0 1 0 1.6037545912003599 17 181 38 269 39 294 37 215
1210 -0.30912382698467022 2.319258304858467 3.7539344895675368 89 121 84 0.97611788531625776 19 180 38 296 39 319 20 239 21 255 37 309 40 195
1213 0.22841154831039392 2.9233771083418376 3.2425046499686934 67 93 47 0.18301831478849104 18 200 38 349 39 390
1214 -0.067214848750454886 2.4843505081010449 3.3889965896726828 32 59 23 0.61133736117803938 18 209 38 359 20 234
1217 0.19343703875701543 2.9387922847477599 3.3259796700738136 70 93 49 1.03973492847654 19 250 38 384 20 265 21 261
1218 0.20335185385340562 3.6047461156278269 3.2984515518462345 51 75 39 1.7865900496027811 17 257 18 223 19 258 37 364
1219 0.23740417732028377 4.3469467523935847 3.4486531096395829 22 45 10 0.74570258842879067 38 373 60 367 57 485 55 266 59 231 58 226 39 392 37 323 36 319
1221 0.26593791902203079 2.9786790068223206 3.3513231441850593 29 58 12 0.43814770985536722 38 115 39 112
1222 -0.16698431518856657 2.4566340000328428 3.3741252581933852 63 89 54 0.45845844419096426 19 63 38 42 39 144
1225 -0.0095142195127939089 3.0269015043791554 3.1241921772398431 140 162 124 0.2678990577782675 38 56 39 152 37 184
1227 0.14504171086606388 2.9979382177366194 3.1681741429382786 79 97 55 0.46443807453669872 38 151 39 166 37 151
1228 0.2186206558355516 3.8758857656235168 3.3371336956842077 39 62 23 0.3079962397439347 19 25 39 189 37 16
1229 0.34608835431934987 3.3654321748123781 3.513623261210145 45 64 36 0.75824674826004346 38 176 39 192
1230 0.032458615182157792 4.6282575280734282 3.5127281874587233 73 99 60 1.4367831493202814 39 193 21 120 38 175
1231 -0.15391367129263916 1.0423395625944947 3.0022278864557732 28 53 21 0.96046546560523205 19 76 38 26 39 208 20 75 40 10
1233 -0.42967463013253865 2.4037108843469377 3.7803219365758949 100 119 89 1.3686758415206781 38 293 39 281 37 311 20 220 21 244
1234 0.42253383360363644 3.1077614582871282 3.029492456802978 170 172 159 1.0774086238910092 38 256 39 285
1235 0.21145638102554559 3.8312798988135435 3.6202672643871781 0 1 0 0.71588847885843621 17 182 39 295 37 216
1236 -0.25596031332261093 2.7835367339618156 4.4690579344129198 4 26 3 1.021756968210763 38 339 39 297 37 302 20 242 21 249
1238 0.21229816138702681 2.9794855824253128 3.2390131339129358 77 99 52 0.16673863129823344 38 254 39 327 37 229
1239 0.16658494801802598 3.7714799308149041 3.2494146002560047 56 78 40 0.47797685510489391 38 306 39 332 37 225
1240 0.20298526649299323 3.8209120316442449 3.3316846399140063 79 100 63 0.36327680053720812 38 308 39 333 19 165 37 278 20 160
1241 0.25721069565533422 3.4376637468483451 3.4067194716792626 162 166 153 0.77110723525759051 39 337 20 37
1242 0.23968479212380744 4.0641872158547407 3.504065844961282 147 155 142 2.5862674344881067 17 226 39 343 37 301
1243 0.10631611491627679 2.7419533006505437 4.603234623202427 98 100 86 1.1450998287730147 38 319 39 347 37 266 36 270 58 202
1244 -0.27355304127124241 2.2189576213654885 3.5817563431629793 170 173 162 1.530792216181039 19 237 39 354
1245 0.14920747187612426 2.6069088211116962 3.4290790043699726 72 91 49 1.1246810056953662 38 333 39 363 37 308 20 208
1247 0.21115101945049272 3.1560699546060342 3.2346665232708345 92 110 70 0.39155523854458862 38 364 39 399 37 342
1248 -0.1956569987205477 3.2249471436275448 3.1503338043361628 122 145 111 1.2403459396175596 19 257 38 382 39 411
1249 0.16994169260476727 3.8364237128488314 3.5407775488264459 146 158 141 1.0096963731594155 16 287 38 390 37 363
1250 0.26402510204894469 3.2208480406716693 3.8361232625933663 8 36 4 1.7444782452356775 38 391 39 416 37 358 20 275
1251 -0.29423280782253725 2.4473207171249265 3.4872336264127748 23 54 13 1.5985235386250747 38 392 39 420 37 373
1252 -0.019775567469872773 2.5770351399155698 3.4045797667081388 20 51 9 1.7270729473933006 38 388 39 421 37 372
1253 -0.066572834355773297 2.3058099989080465 3.6714704650262586 11 43 2 1.9322223530873348 38 394 39 422 37 376
1254 -0.021792830961255144 2.2509463718123999 3.6422516176412945 11 43 2 2.0130603508865734 38 395 39 423 37 375 20 280 21 285
1255 0.07597156164351293 2.5780242141468146 3.4057105932425396 63 87 45 0.78346844946292815 56 262 18 195 17 218 19 219 38 348 39 387 55 243 18 203 19 235
1256 0.19569799988144471 4.2172657481022497 3.4180307181185254 88 114 78 0.98428905119666765 19 18 37 14 36 26 27 278
1257 0.25596749636559601 3.0085975450165519 3.2763726532584529 33 61 12 0.44293316079254536 17 119 57 158 37 28 36 23
1259 0.13270803252800484 3.4192552624971277 3.0942057274216221 107 129 93 0.51009271310001614 17 42 37 49
1260 0.11910864246782604 2.9836603556634849 3.1698850537039549 84 113 63 1.0525136715999479 17 34 39 59 37 56
1262 0.3129427095437366 3.0308090204077192 3.3742892290410689 85 113 67 0.29975281077381377 39 248 37 132 36 4 21 31
1263 0.19637721814870832 3.0502968889490338 3.189649851348932 28 56 11 0.49235133518315816 17 48 54 151 37 149
1264 -0.071295613101143435 2.6615250816342022 3.3320487201078866 31 67 21 0.19772063858928254 57 259 37 152
1265 -0.39234173999322103 0.93591677695332309 2.9409179742805014 68 86 57 0.48024019129757783 19 61 37 166 20 72
1267 -0.068309706151239713 3.0212071270503658 3.139435875598819 71 100 56 0.34245379604379994 19 113 37 188 20 98
1268 -0.2033103853389075 3.054824301311637 3.1808076762043003 151 188 139 0.060521013165396098 19 17 37 194
1269 -0.24846847348860895 0.90756491463703426 2.8625187798350922 107 132 94 0.49090828205558434 19 53 37 203 20 142
1270 -0.36159606320313736 2.9061609467168723 4.4988556347571658 0 28 0 2.1793139978711107 19 105 37 220
1271 -0.33779694489129375 2.3267114965230649 3.671367574555255 109 141 102 1.2150005874326362 19 89 38 138 37 237 20 185 21 228 38 52
1273 0.20438794864191392 3.815138779638477 3.329816938418082 82 107 66 0.35596905629993736 19 166 37 279
1274 -0.21575987381763539 3.0224155865428921 3.1879197487285511 99 135 91 0.76020787645071941 19 142 37 290 20 133 38 134
1275 -0.12542540612853245 1.3382346707848103 2.6415863463933507 49 77 39 0.074482734091040045 38 228 37 294
1277 -0.40143223719605692 2.3662193098780566 3.6617004108240501 147 153 139 2.077363981167816 38 358 20 276
1278 0.19751284738348479 3.3459583052089403 3.179469152881448 91 117 74 0.37931944932251316 39 377 37 325
1279 -0.047348173753666511 3.1900618545958501 3.0960244895134696 46 82 38 0.75392144236621617 19 210 39 358 37 330 21 215 40 133
1280 -0.099644016399671687 2.7465165153336821 3.2376429379701017 57 94 47 1.590638665714371 38 327 37 331
1281 0.25268769189436796 3.8848277251080994 3.3896491272705633 0 0 0 0.017628339421623142 38 379 39 402
1282 -0.26983081717810586 0.92507663433056198 3.0144757004285738 20 46 7 1.1198254102414027 38 375 37 356 20 269
1283 0.3000129503482224 3.1484243712700994 3.794597487675853 14 42 4 0.062633458171405962 39 417 37 359
1284 0.17583447115171533 3.6441145293630828 3.3506091112091658 0 0 0 0.3612306875116269 38 389 39 414
1285 -0.29166253732257325 2.7457345918351779 3.3590136450981296 149 187 150 1.2536345649650815 38 387 39 410 37 374
1286 0.081228310927931688 2.7604505051472326 4.3832725875912795 30 61 19 1.5851792958835975 39 424 37 378 36 374
1287 0.081228310927931688 2.7604505051472326 4.3832725875912795 30 61 19 1.5851792958835975 39 425 37 379 36 375
1288 -0.1837944305392199 3.0776577808802177 3.5705044019043672 51 78 35 1.524706000355921 19 271 58 263 60 410 20 284 18 233
1289 -0.088926040887322921 2.5066605749892545 3.3854849656965698 16 33 10 0.38484041983448264 19 64 38 196 37 185 39 232 59 100 20 109
1290 0.19156863438024743 3.1189804394957705 3.1597526907159015 23 50 8 0.78021946130894138 18 121 38 298 39 325 37 231 13 232 60 252 55 160 58 101 20 130
1291 -0.11669596274688496 1.0134471946890664 2.8514808517161185 0 9 0 0.61423425153333489 18 135 17 194 38 323 39 370 37 317 60 242 57 335 59 86 58 73 15 145 56 151 16 166 18 136 17 193 38 324 39 371 19 171 20 205 36 295 21 206 40 156
1293 -0.12970702844551235 1.2788836639317491 2.6875055456730905 34 67 23 0.1819205716965191 19 240 20 264
1294 0.22729395983764331 5.0774531055624603 3.191726131994125 181 198 173 1.5653033407888579 19 3 20 0
1295 -0.34739780974746465 3.4417010500153884 3.2100078579910241 99 120 90 0.89085813428455851 19 5 40 26
1296 0.18521580747429925 3.7648746022677892 3.3092984076391128 40 64 28 0.16232972267488163 19 24 37 19 20 15
1297 0.014905753996505032 2.3583188471277183 3.441827179589164 117 139 100 0.79282750279592751 19 129 20 73 21 98
1298 0.064403419120517322 2.3873358354425176 3.4870015990644818 35 60 21 0.96283120655364252 19 84 20 78 21 58
1299 -0.47898119537831246 2.4565749352056336 3.9173243835246145 82 108 73 0.45928507351441317 37 82 20 87
1300 0.4871013007736481 4.7016386769365379 2.9577591274914772 21 24 11 0.35569173202883464 18 13 20 92
1301 -0.04714060705703893 2.7803967217068881 4.5835397146852364 51 72 41 0.63514624660032182 39 203 20 122 21 74
1302 0.27521852251990453 4.4399797765278368 3.4167257105780333 58 84 49 0.33823330549423519 39 296 20 126 21 153
1304 0.09018717583207983 2.911851523868334 4.6514779504992552 30 48 22 0.54362105593333032 19 184 20 187 21 188 40 154
1305 0.1584410110365938 3.2396895865620072 3.134613580470595 67 91 55 0.18196846827965135 37 326 20 190
1306 -0.10580045199323751 2.7961610663750394 3.0802862387560737 188 189 181 0.12303513325326199 19 188 20 197
1307 0.31840190972990406 3.2113692055503469 3.6022689305970435 19 47 6 1.4936194531622304 37 269 20 206 21 130 40 99
1308 0.33796533781891414 3.7113738113402421 4.0120622787977913 102 103 82 1.0423310747772738 19 221 20 216 40 169
1309 0.21903040088345216 2.8299708301019262 4.5645003607490171 98 101 88 0.056883221935258153 39 304 20 224
1310 0.26359479411628689 3.6608571482406727 3.6610955443081581 58 74 47 0.99726211122296693 19 242 20 233 21 222
1311 0.20305424888760235 2.966336149057982 4.0623564545505078 98 103 96 1.4303753197966351 19 246 20 262 21 254
1312 -0.27193724703277977 2.93608822545808 3.2556899388757063 117 141 107 1.3083206933927216 19 259 36 371
1313 0.27695696952199367 3.538546463031484 4.139188362359481 88 90 75 1.6067509580482271 15 231 58 205 16 240 37 296 20 237 17 229 38 343 39 368 40 183
1314 0.0584524801026262 2.9248583287330812 3.1873829419423041 27 57 13 0.54975738120168804 25 249 53 220 54 66 10 159 27 245 59 31 56 124 16 46 37 68 20 30 38 72 39 157
1315 0.30411246688941773 3.0411830536177669 3.3515847141858135 71 92 49 1.102934229757748 19 197 37 304 20 201 57 482 18 193 38 351 39 380 36 239 21 197
1316 -0.20656746193993608 1.005467220084145 3.0624555962517794 22 34 18 0.57169809937677951 19 178 38 132 39 269 37 259 20 183
1317 0.51395114337658587 4.6986026535907737 2.9353663312256266 166 171 164 1.2893261754566172 58 71 16 134 20 155 14 255 55 233 59 138 19 159 21 150 40 127
1318 0.092856717473378036 2.7014014438928728 4.5339836171212449 49 64 43 0.88102442010368143 37 125 36 0
1319 -0.095738413462668731 3.1605418747427549 3.0953849763005801 56 94 45 0.63862269028673235 37 87 36 78 35 143
1320 0.15506561641288746 3.1665630231592612 3.139803305420755 101 128 86 0.77588601009847336 20 14 27 258 36 131
1324 -0.0056762596391463638 2.5768502463737457 3.3556238621919672 26 59 14 0.95150648853859376 20 267 36 368
1325 0.050548750702615934 2.9406401287539006 3.1763229847481753 94 122 79 0.43280043944774871 26 75 52 87 10 59 27 247 54 69 36 53 38 67 39 49 37 70 35 128
1326 -0.14874786168693865 2.7784032951098609 3.2761151647654003 43 82 31 1.1770399356729799 24 498 54 353 13 395 26 417 27 483 57 490 36 356 60 361 14 299 55 256 58 213
1327 -0.0373085110540049 2.699652285934008 3.2872572539979936 75 105 62 1.4009244247170638 10 276 9 308 8 351 36 286 15 127 56 39 38 199 37 183 20 102
1328 0.10268363223233204 3.1674582095067003 3.1253580092621647 56 85 41 0.062877659171448969 20 10 36 137
1329 0.44100984632330426 2.1357376324149389 3.4402517332915137 0 2 0 2.925868574491445 60 313 36 233
1330 -0.050652163380937962 3.0472060682372204 3.13166109458456 50 83 37 0.53166367708519324 24 405 22 580 25 396 12 283 53 413 23 262 11 277 54 234 13 314 26 320 52 316 10 278 51 254 9 285 50 250 8 272 27 423 49 220 36 288 19 13 38 136 39 149 37 187 20 96 21 160 48 207 6 323 5 250 33 232 47 180 34 231 35 203 46 90 40 21 28 187
1331 0.27134438706726993 3.6041333379885208 3.3977864912137425 139 153 135 2.4121819268248634 37 131 21 21
1332 0.28875031993991696 4.5355859737729745 3.3152431272260943 62 90 54 0.18161917390245802 20 4 21 75
1333 -0.13785729289129309 2.7244731808179714 3.3030324092819052 123 155 104 0.32713745173854819 20 46 37 236 21 129 40 34
1334 -0.083559369620878371 2.6094392364788015 3.3380467477410534 133 162 114 0.29171816512898252 20 138 21 131
1335 -0.31046257196956245 0.94349479389075264 3.022289183657076 62 94 53 0.94831540243713652 20 116 21 142 40 13
1336 0.3560373816237577 3.668561877781221 3.9913657448366902 0 0 0 1.5403688034318441 36 231 38 318
1340 -0.26419528848304435 0.89294822054840783 3.069387950934507 0 0 0 0.045533675584628314 36 267 38 229
1341 -0.2860965639680122 0.9152525537928522 3.0499973133434235 35 55 27 0.69166979086065861 20 218 21 212 40 175 21 226
1342 0.11914046516515853 2.9460210031040992 3.2089136154666882 46 71 32 0.4405443145763559 20 245 21 234 40 178
1343 0.086309416245794454 2.3967440323275668 3.5132942372602844 29 51 12 0.47794096402055453 20 252 21 242 40 181
1345 -0.26699884423531456 2.5435167450721887 4.1295695717782799 54 86 49 1.4586750913404589 38 338 21 246 40 208
1346 -0.28622281451946002 2.7091743046518113 4.2896317646295783 1 30 0 0.37286723111297165 20 221 21 247 40 196
1347 -0.27544943775868008 2.8289366733523189 4.4889490959428571 8 40 4 0.66426671622630473 20 241 21 248 40 197
1350 0.044179271005146764 3.6159219868957408 4.0889442579254247 14 37 8 0.84394152742577866 37 300 40 149
1353 0.20479745209262118 2.8530188356448414 3.6553896061815472 28 61 14 1.4167836238931395 49 38 5 32
1355 -0.29973227357962162 2.8724730817702144 3.2855212129608331 120 161 105 0.26642088335203373 50 82 48 66 5 67 34 67 4 61 3 41
1356 -0.41256353675594692 2.7873142552269816 3.3967189796686164 164 206 160 0.37335627155397044 50 162 48 70 6 206
1358 -0.66033225569554732 2.9528004203196039 3.5304680344005268 34 56 31 0.12618095379720137 8 284 48 144
1359 -0.28706342075286773 1.0207701720916749 2.7773267178765728 0 11 2 1.0278046998118635 49 245 51 138 48 150 6 302 33 278 34 222 4 240 3 241 45 293 2 193 1 150
1360 -0.29044779542362903 1.0115324139612336 2.8991655540908559 60 107 60 1.0853213685367002 50 180 51 140 4 201
1361 -0.13395856957941765 3.3268308258519865 3.1044143195710081 146 184 135 0.21015619645068917 7 245 48 171
1362 0.15374053941682264 4.3531060172063629 3.4112015774387503 76 116 74 1.2382207442585904 7 202 49 187 48 180 33 141 34 66 4 182
1364 -0.19042827854605315 2.4506572363030954 3.3824352595166998 57 98 46 0.45425526278422657 49 261 48 204 7 307 6 318 5 260 33 181 4 169
1365 -0.38372330179751934 2.9833805855284887 3.3393473631657979 77 121 70 0.37305186376479588 7 291 48 220 32 280
1366 -0.21284309150220498 3.7790160136477935 3.4407428111937381 0 1 0 0.58280687301412371 7 251 49 235 48 223
1369 -0.54001732980676187 2.8915055713238154 4.5660897881107161 107 118 107 1.2312916446506608 49 284 48 256 47 210 33 251 3 238 2 192
1370 -0.28984905219567247 2.9079340244970551 3.2701026175678827 108 149 93 1.1789497822889741 7 311 49 301 52 380 48 266 5 325 5 347 33 291 47 237 4 286 3 271 45 319 44 154 2 169 35 233 32 305 43 93
1371 -0.24806038579504042 2.6419593312081853 3.4035904388691911 41 88 33 0.39714067507789208 49 315 48 281 7 327
1372 -0.18213563282055073 3.1681811279330021 3.1253864982617472 56 100 45 0.32283032446510723 49 341 48 282 6 390
1373 -0.18378639539950109 2.5347370441680335 3.3493139020591087 111 148 97 1.4226369969534973 49 351 48 290 6 383 5 372 33 335 47 269 34 305 4 314 45 330 44 240 43 184
1374 -0.29338180937328362 2.5531505418438765 3.3984070122878904 46 95 39 1.137224254814982 49 364 48 314 7 374 6 410 5 389 33 337 47 281 4 316 3 312 45 363 44 241 2 255
1375 -0.30622812034959795 2.5361626208601198 3.3809109581841952 46 95 39 1.0085968100181384 49 365 48 315 7 373 47 282 34 306 44 242
1376 0.2995426381064149 4.0658422910955565 3.1761417837277852 0 0 0 2.3115280150290927 7 392 49 376 5 393 33 348
1377 -0.54543184688861501 2.9835962526556057 4.2862301304538475 60 115 57 1.5852541347730689 7 394 49 378 48 333 5 403 33 363 47 299 34 327 4 337 45 379
1378 -0.19237656895836691 1.2486705509542517 2.7978900411518142 57 110 58 2.0588531884332975 7 397 49 381 6 426 5 406 33 365 47 301 48 335 4 339
1379 -0.1979334140207677 3.0429149222787495 3.5901208379748981 156 198 150 2.1447107630710844 7 399 49 383 5 407 33 366 47 302 34 329 4 340
1380 -0.21243594866429677 3.1224405077730242 3.1559445452041253 42 84 31 0.63836968012115813 9 83 7 151 48 64 10 77 52 114 51 93 6 198 5 139 4 54
1382 0.19859034847803186 3.4741890504509967 3.6178499152742791 49 94 39 1.0146387248540227 7 64 6 47
1384 0.15134922293189582 4.1269305834964243 3.3695203491311556 65 94 54 0.76826763212910743 48 143 6 138 5 78 47 57 4 135
1385 -0.16028640562124757 3.5790754539112859 3.3437221791127625 79 116 73 0.71101154787175691 48 78 6 142
1389 0.065077790474227515 3.175247788510497 3.0952723587975868 114 141 98 0.12092159011562059 48 125 6 173 32 129
1390 0.10740857203650878 2.9468898874990943 3.1579207163110343 63 79 50 0.61130062823822284 48 160 6 253 5 116 47 133
1391 0.12146091983663915 3.5603449117957018 3.0810449699169595 161 160 149 1.7487124509911425 7 285 6 268 49 269
1392 0.49651909217966511 4.6524221647208659 2.9537466656806002 77 95 66 0.83724321349774267 49 183 6 273 5 190 32 226 32 268
1393 0.13742086539671625 4.4107613106753458 3.4553147203027361 128 136 125 0.74691396394940301 7 255 6 289 5 272 32 239
1395 -0.26989563599123423 1.0577921738736729 2.768970885655766 105 155 106 0.64495546973558648 8 237 6 305 5 223 33 254 4 195
1396 0.11340068801666947 3.196011005571163 3.0448584474384317 157 159 153 1.7984263197584611 48 240 6 317 5 244 34 227
1397 0.12996679631292213 3.4615616108642548 3.0712106282910794 169 171 158 1.671652898110354 48 241 6 321 5 248 47 177 34 147 32 263 33 174
1398 -0.063393238953566203 3.0299880145498381 3.1262534435892624 53 84 40 0.45653463481283346 48 208 6 322 33 233 5 249 47 181 34 232 32 264
1399 -0.0042451237440454814 3.5004299640448497 3.1179613836694724 128 165 115 0.36555482082006602 48 212 6 328 33 124 5 135 47 100 4 45
1400 -0.007516625842119401 3.4936237963710788 3.1135639236917498 128 165 115 0.23961780293094423 48 213 6 329 47 101 34 41
1401 -0.12100665664317117 3.3367493062564679 3.1130761865317869 142 180 131 0.42456076740187898 48 172 6 331 5 297 33 240 47 140
1402 0.051780479270373797 3.3915905896222838 3.0745579253625737 72 103 62 0.2920759046488543 48 263 6 357 33 234 47 178
1403 -0.1435227591153162 1.7989221236871782 2.902223343818191 145 155 130 0.47395346603267363 48 272 6 368 33 299 47 247
1404 -0.019319245623264689 2.6188736164255468 3.3406814375879019 31 64 19 0.67721169582381713 49 312 6 382 5 359 33 318 47 266 4 297 32 311
1405 -0.49109454806754421 3.4179227770153546 4.0613866154745679 0 0 0 1.9142888791996415 7 387 49 373 6 422 45 371 2 261
1408 -0.30633844108326186 1.0354241011765637 2.7970779657386222 76 126 75 1.0311546672379825 7 114 5 4 33 11 34 3 3 140 44 8 2 2
1409 -0.21220677334213806 2.1493343529123861 3.2355638800445927 157 208 142 0.23239206940615131 7 22 5 9 33 21 4 23
1412 -0.18267771164920188 2.5335973085510961 3.356547923115655 109 146 94 0.45815967264104568 48 39 5 40 34 106
1414 -0.17631878696906847 2.9772859256917785 3.1888127131725543 130 174 117 0.52376656183034687 48 55 5 52 4 49 32 55
1415 -0.34000477687946035 2.7997942396747018 3.3231506433697415 94 137 81 0.18381033884014919 6 51 5 71 33 75 4 67
1416 -0.47985509220382944 3.2790360617885694 4.6616562573873273 0 0 0 0.3232770538495896 9 208 50 218
1417 -0.28383348840477601 2.4335344198188156 3.4225327397266208 218 253 214 0.31180679210664913 48 45 5 138 33 133 47 52 4 132
1418 -0.26785117365499639 1.0046248984060124 2.7739272375433277 58 102 51 0.22165506231857937 48 99 5 163 44 5
1419 0.20247087842112724 4.3168905290949162 3.384441053456154 58 94 45 0.44264082088876944 6 141 5 208 33 139 47 58 4 180
1420 -0.29777743205951973 0.83273438406966216 2.8139440516311387 173 171 158 1.9902765352451457 6 220 5 221
1422 -0.29362804847159685 2.4257995789664029 3.4770845190453041 77 126 71 0.69478876874939854 6 358 48 242 5 299 33 264 3 274 45 309 2 220
1423 -0.27864144090678261 2.6532726584741675 3.3610625890617447 48 93 36 0.42301311370701333 48 210 5 300 33 263 47 191 34 240 4 254 45 308 44 155 2 206 43 125
1424 -0.49096026606467363 3.0663030294747307 4.6861711315911991 118 125 116 1.691308188848599 48 257 5 310 34 253
1425 0.12214338482387337 3.5434546682088546 3.2894673447736258 67 108 52 1.603911949845094 49 272 5 320 33 288
1426 -0.36352350902289199 2.617230523242954 3.4380691198158777 124 165 107 0.41913654400691519 6 361 48 265 5 327 33 292 47 221
1427 -0.09189795476260651 2.9900352272284905 3.1559223548421222 60 98 49 0.19739658157711362 6 372 5 339 32 312
1428 -0.26619070470630002 2.466280535669048 3.3843378147457157 66 113 59 0.56010204582368794 6 374 48 262 5 342 47 235 34 282
1429 -0.27830028779209309 2.9190071480250914 3.2668994665849693 119 162 106 0.44148008721579279 52 379 5 348 4 287 3 272 45 318
1430 -0.098150514655870574 3.7837282048559695 3.4251173224815776 134 139 121 0.86743997506238379 6 409 5 354 32 318
1431 -0.26447800250474685 2.3941846476013553 3.4210888962139547 152 199 147 1.4432237667277561 48 312 5 375 33 336 47 270 34 290 4 315 3 281 45 332 44 214 2 219
1433 0.10159345073015069 2.8367232380293692 3.2543575043221074 84 107 61 2.0064837262898649 6 416 5 385 33 344 47 286 34 318
1434 -0.36084793506343138 2.5412685611452752 3.5257028058207389 49 99 40 0.82009006469005341 48 321 5 395 6 418 33 354 4 330
1435 -0.29376745387022823 2.7957435672770035 4.7106502481683563 0 0 0 1.5246443905634641 6 423 48 331 5 400 33 362 34 324 4 334 45 380
1438 -0.91695857200094477 0.86582953498894799 2.7169891160830826 0 0 0 0.011480594366344611 33 360 47 298
1439 0.1390200023413298 2.8267700836726282 4.6467915280610628 105 104 97 1.2503258808724897 58 203 38 321 39 369 37 295 36 269 19 208 21 213 40 172
1441 -0.24187465583165807 2.2575849916485442 3.2927741496451599 165 217 167 0.40318078413816927 5 122 33 40 47 41 34 104 4 36
1442 -0.07594406724618144 2.7458921042115492 3.2714960872677086 31 67 23 0.24649232266269175 52 66 33 42 45 48 28 49
1444 -0.22037344682478482 2.5038081572967741 3.3872987665817176 71 122 58 0.3038675706172731 5 131 49 122 33 60 4 129
1445 -0.20579843230716888 2.6969759629836529 3.3196326511193357 85 125 72 0.36449010668430165 7 45 33 61 4 53
1446 -0.28708603131772326 2.405007337702656 3.4557734110729319 77 126 70 0.12490719442840582 5 57 33 65 45 83
1447 -0.34919670398589359 2.6501139617805505 3.3675075175875602 111 154 98 0.71326209165296228 5 69 33 73 45 77
1448 -0.33201585217331847 2.8328655168005277 3.3235820381597625 162 207 149 0.24730869391498711 6 124 33 76 34 72 4 68 45 75 32 144
1450 -0.40401309308180328 2.6679013954175517 3.4280581242662613 206 245 201 0.16274623378017797 5 80 33 81 4 75
1451 -0.42217683629426905 2.9676685717176361 3.3963531279963304 73 124 65 0.48002568705487431 7 77 33 85 45 90
1452 -0.17530481641613993 1.7824583717236218 2.9112517626508918 176 211 171 0.12541450036711121 48 110 33 115 4 14 5 110
1453 0.016590383758655347 2.5264182198746852 3.3589235884486248 123 142 110 0.41937911665756872 5 121 33 118 47 91
1454 -0.31447640207495281 2.4495736385821325 3.4267249645864997 202 246 208 0.70191984487483849 5 140 33 135 47 107 34 119 4 63
1455 -0.29264521200434923 2.4799328328763814 3.4813866056632365 209 248 211 0.24921399235527208 5 141 33 136 4 178
1456 -0.40003238128757684 2.709728693889776 3.5553167272396244 210 248 215 0.44508651292801077 5 150 33 144 4 139
1457 -0.42343251945532123 2.6397447263063234 3.5663422621281518 212 247 210 0.3328260393196571 5 151 33 145 47 72 2 83
1459 -0.52032352017371619 3.5163794458845796 3.7962559503019673 84 134 84 1.0268031701672542 48 94 33 152 6 91 47 81
1460 -0.29748432950601245 0.98099312757212631 2.9041587276925025 172 225 179 1.7090349551061255 5 228 33 162 3 244
1461 -0.035427305463291162 2.9925389772050242 3.1455047021472682 108 144 100 0.22467923935416925 6 319 33 175 47 136 34 196 4 162 5 187 44 99
1464 -0.30323007942457481 3.0442283451189165 3.2389263014658507 172 222 161 0.29935917981248966 50 213 33 193 4 175
1465 -0.31699132117957929 2.4203611769900872 3.5750224098390051 183 224 192 0.67873746935578827 5 205 33 194 47 117 34 207 45 175
1466 -0.3078754596951695 0.94573146306589362 3.0675261085963346 46 72 42 0.49269960088732268 5 230 33 215 34 182 3 248 45 246
1467 -0.30909544643950887 2.649772335449275 3.4044669875434517 133 176 120 0.55256209351971641 5 267 33 242 47 113 34 161 4 177 45 220 44 59
1468 -0.37045018091525317 2.6052276169455757 3.4418312084812062 141 188 130 0.32416448835527273 48 215 33 243 47 149
1470 0.13180000062169042 2.6255802534906207 4.2625717150875708 0 4 0 2.468851946369814 5 269 33 246 34 122
1471 -0.34312906206084498 2.430882501086594 3.5356619674359777 47 90 38 2.6312120476812852 5 326 33 267 47 146 34 265 4 256 45 321 44 192
1472 -0.24975351956712971 2.6523890370470662 4.2575438427327308 6 37 5 1.2682170573293876 5 274 33 272 47 201 34 247 4 280 3 288 45 338 44 200 46 115
1473 -0.30067890628131561 0.97340250960269348 2.9086901024793885 147 198 154 0.80929694581487333 5 314 33 279 4 264 47 11
1475 -0.34637087486871204 2.7547205038148093 3.604711810844389 192 228 202 0.7013787697992111 5 351 33 294 47 239 34 266 4 289
1476 -0.091079274209154126 2.98659249798204 3.1540582675119415 56 94 45 0.30667222100130775 48 280 33 304 47 230 34 277 4 285 3 269 45 329 44 210
1477 -0.12325110072144307 3.2818145245557591 3.0930249268212258 149 185 137 1.5259643902882174 48 298 33 306 34 279 5 343 32 313
1478 -0.3855777189188685 2.6239131606389252 3.4970684677851152 61 110 51 0.35487817723031895 5 350 33 311 47 238
1479 -0.20225323746132418 2.8254071600436039 4.4601128609153413 0 28 0 0.9152659557887256 5 355 33 313 47 241 34 285 4 291
1480 -0.23843723134043471 0.95581442517271853 3.0608849557684179 31 55 21 1.1295885035263942 5 337 33 316 47 245
1481 -0.16394267365302304 2.2304527021470428 3.1449701902898797 2 3 1 1.3813185992661108 48 274 33 317 4 296 2 156
1482 -0.45162985461065303 3.4142637976025854 4.3653377550522592 118 143 120 0.94307581836487098 6 380 33 329 47 277 48 310 4 328
1483 -0.18732965025344941 2.2802490297703324 3.646000588638894 28 60 23 1.7847609519080099 5 394 33 351 47 290 34 320 4 329
1484 -0.36057888136246913 3.7192964601098923 3.7527972956934859 75 138 68 1.6786032861222409 5 399 7 393 33 358 47 296 4 332
1485 -0.2610760498423681 3.0039904271769093 3.5194837582234282 0 0 0 1.0967519689457801 7 398 48 336 49 382
1486 -0.29367298773068989 1.0051318797250961 2.8042464930323412 121 166 118 1.8886279571367086 8 236 48 185 5 226 51 139 9 183 33 211 52 2 51 137 49 192 7 262 47 212 34 223 4 197 3 243 45 295 44 142 2 194 43 4
1487 -0.28204640398654685 1.0235021370496677 2.7792500210477691 7 27 5 0.88985833246425183 8 235 6 303 5 313 33 277 7 263 49 246 52 247 47 160 34 221 4 239 3 242 45 294
1488 -0.20172346502451721 3.0859535704549863 3.1660975624016734 128 173 114 0.49129231184664068 5 321 33 261 47 188 34 236 4 251 3 214 45 304 32 294 43 91
1489 -0.20970983302778246 3.0739409138663696 3.1608970506539968 128 173 114 0.53278914704741098 5 322 33 262 47 189 34 237 4 252
1490 -0.40224591465143816 2.8620955968925497 3.4924765152332844 74 130 69 1.1515545986309592 5 381 33 341 47 274 34 298 4 320
1492 0.32921797475046299 4.4338186977636624 3.0930028593050309 171 180 163 3.2549629144396039 7 88 33 50
1495 -0.073425810838219641 3.1780168013385461 3.0901233840400995 73 109 63 0.12982277730283495 5 259 33 236 47 184 44 98
1496 -0.056169223412118677 2.1303529897941269 3.5011503369921488 122 124 113 2.1211542509457413 34 258 3 255
1497 -0.095710307824387636 1.3479049402068888 2.6397190064812914 101 125 89 0.34838554739994426 33 7 47 4 34 1
1498 0.11678820625017668 1.1005284354628966 3.0867369942908462 32 47 16 1.3531009824984785 51 3 47 5
1499 -0.14273056408057563 0.93211476812582927 2.9213157230755415 30 47 15 2.6334854182530925 48 5 47 6 45 14
1500 -0.26559227871346108 1.0268785102315019 2.7595039204464769 74 117 61 0.36366469416380037 49 106 47 7 45 9
1501 0.10255792343395556 2.774026970350373 3.3053421374795722 99 120 81 0.16591910821799832 5 12 6 9 47 27
1502 -0.15784838703732387 2.3754344758383921 3.3507517117645298 67 98 57 0.22704751990306918 5 124 47 43 4 40
1504 -0.29929874684783647 2.9398736441316569 3.2698754754573773 144 185 127 0.42681210729007113 6 200 33 70 47 55 32 143 8 82
1505 -0.34420156339927949 2.3590437769492385 3.7573608254303945 33 73 23 0.88853689534380642 5 213 47 69 4 224 2 125 2 175 43 75
1506 -0.18612056911810762 4.1392581954616894 3.9535471107891951 130 162 125 0.66355074574957484 6 90 47 79
1507 -0.049760826091743787 3.1774055131656804 3.043738144285042 63 91 50 1.4022096700722546 5 24 33 120 47 94 34 148 32 135
1508 -0.28149937730327984 2.3750532633725734 3.4485345062806481 171 220 160 0.24425729784971864 5 195 47 105 34 114 3 109 45 166 44 61
1509 -0.41968685369611453 2.1049069966800746 3.4577152755069394 46 82 36 1.4220865251191166 33 188 47 108 4 133
1510 -0.01052927249006011 3.7132772138710317 3.2531975811299594 154 201 146 0.32180633291074096 33 69 47 111 4 59
1511 0.10632108099355761 4.0181302479602667 3.3417468656308422 162 199 155 0.19187383586463572 5 145 33 137 47 114
1512 -0.33104675135227157 2.3399139008373746 3.769783777508918 67 106 60 0.52221197053792456 5 147 47 118 4 140 45 109 2 85
1515 -0.28983691258389238 0.96873201893230776 2.8326175990722824 53 111 53 0.70779246313516386 48 183 47 129 34 176
1516 -0.27358277711305684 1.0119631930743704 2.8653511085896328 126 175 124 1.3076639631682208 5 227 47 130 34 225
1518 -0.32101441955843191 2.4406768490010404 3.531148358478446 45 92 39 0.40734544902026593 33 268 47 147 4 257
1519 0.1116901837286865 4.0770450432127694 3.3884489003467442 156 203 151 0.16541264475826065 5 209 33 195 47 148 4 136
1521 -0.12174239487865968 0.93907554736768772 2.8437988206901545 148 152 135 0.96787065382590587 7 204 47 158
1522 -0.24206672321071238 1.0103341790115397 2.7817330067754806 49 97 41 0.73272519667509683 33 253 47 159 3 264
1523 -0.17583686034709478 0.88528784959377615 3.0143360710790166 133 136 119 1.8605563445634914 5 225 48 231 47 161 34 175 35 224 46 135
1524 -0.26572461572890727 1.3491293164345615 2.9162388697225134 64 85 51 1.2540778255207634 33 168 47 164 34 185
1526 0.19744215735701201 3.3621490946078558 3.0984589470154118 166 166 153 0.74561234707337309 33 226 47 171 4 213 32 261
1527 0.16410270337854585 2.7591838814379401 3.3761696984736425 37 56 23 0.53940725364554265 5 242 47 172 34 228 32 215
1528 0.055927637747249188 3.4000829578671889 3.0776617822769117 81 105 69 0.40805782252961798 5 256 6 356 47 179 32 265
1530 0.39083710061148097 4.5158939037167709 3.334125726029022 144 154 130 0.31688490547991444 33 187 47 190 34 200
1531 -0.14777603692329624 3.8034909317806087 3.4239809208062724 1 0 0 0.42841008636745337 33 249 47 199
1532 -0.3572426188286455 3.68694049887949 3.9883473773422455 62 108 58 0.479765761147884 5 275 33 250 47 206 34 213 4 229
1533 0.45504941511167052 1.255166746857898 3.1840950021373011 0 0 0 0.8412797130625318 33 252 48 182
1534 -0.11463441340606947 2.4717964355829811 3.3903290726184236 64 96 53 1.3614107354950731 33 284 47 218 4 218
1535 0.17293553965065972 4.1975997003392163 3.3787006525219097 73 98 63 0.40893086794324357 5 304 33 269 47 220
1536 0.076332298714669802 3.2673030764291355 3.0990452324130269 60 87 46 1.0083075765095391 48 278 47 224 34 272 32 302
1537 -0.23592840889857108 2.3250979713510551 3.3570134389135262 158 204 148 0.33749940969020176 33 305 47 231 34 261 4 269
1538 -0.17691883762191984 3.0826737885260092 3.1613515623448025 124 165 107 0.92650663453716586 6 389 47 233 34 281
1539 -0.29747805670931865 0.99771509454062057 2.8272933054724971 83 136 84 1.2468691536446819 5 358 47 244 34 287 4 294
1540 0.40410118908249909 4.4716347149382472 3.2834417123268169 155 152 143 1.5943839528247654 5 349 33 308 47 251 34 278 4 303
1541 0.21305277278615001 4.5025248502835815 3.2832074218940637 148 162 142 0.75715413124485298 33 309 47 255 4 288
1542 -0.18585762272723338 3.835209474424826 3.4346535527474815 2 2 0 0.6323244870445951 5 382 47 260 4 310
1543 -0.13186546111433417 1.0881365644068721 2.7102743726568992 31 64 17 2.2336101828796271 33 315 47 264 34 300 4 282
1544 -0.18557486692465433 2.355100096655351 3.2825547020414714 58 81 43 1.5797883903986289 33 333 47 267 4 299 3 309 45 344
1545 0.20344973256215201 4.4605417794820017 3.4521404859819498 124 147 119 0.97528781475715454 5 380 33 340 47 273 4 319
1546 -0.21158401807269034 2.6671243506743427 4.0403593278532277 39 76 32 1.310758905488886 47 294 4 331
1549 -0.29906412977601743 2.8991911122758589 3.4442100924558243 0 0 0 1.9104768823483371 6 428 50 411
1550 -0.069436472317493142 2.7697003331530317 3.2589062084618394 96 125 81 0.5952455120862844 50 64 8 72 7 40 49 47 5 22 33 41 47 42 53 208 52 214 55 37 58 31 6 174 2 14 28 111
1551 0.53352532372136752 4.3318332148762586 3.2344214514754084 0 0 0 1.7062132992651311 5 397 33 355 47 295 34 322 4 324 46 213
1552 -0.16460806212516946 1.9836299356171312 3.0509501357089794 173 207 167 0.0041599372069816148 47 21 34 12
1553 -0.15970871617973892 2.8893037241615618 3.2177401526098386 93 134 75 0.39748046036654427 5 130 34 45 45 52 3 30
1554 -0.16537850868182141 3.2251476207441168 3.1029248944912879 150 195 140 0.034744425869364624 5 55 34 52 4 50
1555 -0.090526009795181051 3.335467999076398 3.2387411860392676 57 102 43 1.691305064562471 34 55 2 23
1556 -0.4002583287112616 3.6607197053858922 3.9407385031671049 87 126 82 1.0252793380798237 33 98 34 86 4 92
1558 0.46566093084169569 3.2721310342467942 3.5291432438418644 48 75 32 1.5887483938278053 7 137 34 96
1559 -0.1556336131963986 2.1004499064085143 3.6502103542736233 134 140 126 0.22999240846261274 47 103 4 57
1560 -0.32333652488813974 2.6001178009010752 3.3740814779129149 40 87 32 0.85438466373681743 33 67 34 121 4 64 32 74
1561 -0.3061049288539795 2.4831616776545329 3.5236749602674982 184 230 174 1.1227580671368167 47 56 34 124 44 109
1562 0.029450803882082318 2.6303542350927298 4.4519350454896918 117 119 108 0.6593787520519111 33 148 34 131
1563 -0.35051851711091636 3.5265114436043343 3.9259934996557178 71 119 69 0.38534813077086361 6 211 34 133
1565 0.00011199357226610723 1.3288034357719096 2.6980364115994764 56 73 45 1.7699565061804723 6 299 35 191
1566 -0.34286351712763147 1.0588429214634751 2.9558462971084225 15 30 11 0.9171266617128353 33 280 34 184 4 266
1567 -0.36572073908235153 1.2521839888375581 2.9019301633246606 7 4 3 1.6006182746741571 47 214 34 186 5 173
1568 -0.37207269729224984 2.9671683845385846 3.333630147094941 82 133 74 0.1486776020852727 33 245 34 208 4 223
1569 -0.37090916251381106 3.4677091472772879 3.8830081130429797 69 117 67 1.0104983671415682 5 330 33 296 34 212 4 279 3 277 45 312 44 169
1570 -0.44398253228691503 2.9647672393705444 4.6405071356523209 98 103 97 0.85201221902073287 34 215 4 188
1572 0.17909313924658418 2.6616066705631987 4.2955353542264554 3 6 4 2.6821940857775139 5 268 34 242
1573 -0.35797115105526178 2.6942906367641966 3.8174722701417734 206 229 185 1.2972428063445125 33 200 34 245 3 232
1575 -0.20656406238231578 2.8738980035801411 4.6124865119436382 1 0 0 1.4328947719465235 33 203 34 249 2 248
1576 -0.25460439174663901 2.8073554798585847 4.5572920662659353 1 0 0 1.291569317605626 5 332 33 204 34 250
1578 0.44885094872931464 4.6814448055465423 2.9581828898858706 166 169 157 1.6376279065879655 33 286 47 228 34 273 32 270 35 241 6 332 28 233
1579 0.030790338732310393 3.1329655245081831 3.1224574839973407 125 154 110 0.95964467426692812 33 282 34 274 35 284
1580 0.40446632749549694 4.1505653152957205 3.2770141194503131 0 0 0 0.29314447845935931 47 250 34 275
1581 -0.19929720087478242 2.8628165594251866 4.486090114928813 3 26 1 1.5196982990838763 47 242 34 284 45 339 3 290 44 216 2 247 43 191 1 213
1582 -0.47217581467608222 2.7752476355257145 4.3436762295809555 40 75 35 1.7334765210668364 47 276 34 310 33 343 3 319 45 372 44 255 46 205 43 203 1 226
