# 3D point list with one line of data per point:
#   POINT3D_ID, X, Y, Z, R, G, B, ERROR, TRACK[] as (IMAGE_ID, POINT2D_IDX)
# Number of points: 373, mean track length: 4.4604123095309234
2979 -0.75372229992706541 1.4419610050371512 3.365524560900921 62 40 26 0.78569343274207148 12 872 11 3182 39 2645 10 2302
2980 0.32891534964784014 2.8008321100745555 2.1525442823571326 146 127 120 0.43190552947780908 12 3209 11 3184 39 432
2981 -0.70715870291926097 1.5390357270188237 3.2803208570591407 93 71 57 0.27268608480062678 12 915 11 3197 6 2299
2982 -0.78704956914493174 1.4686224617996031 3.3363886820080664 101 79 65 0.56286767553032513 12 906 11 3202 38 2181 39 2657 6 1677
2983 -0.89513419239515213 1.3946428681749212 3.4163983722772659 96 74 63 1.2930650908924446 12 893 11 3213 9 2372 38 2197 8 2800 42 1342
2984 -0.7175547388939002 1.6603957616770129 3.1864867976678664 85 63 52 0.48887629914888142 12 978 11 3225 39 2659 10 1695 6 574
2985 -0.71700872099068458 1.6602800672148192 3.1854679772748375 85 63 52 0.38238179277280326 12 977 11 3226 39 2658 6 573
2986 0.70624931283238024 3.4834608697055089 1.5499032335571854 144 131 123 0.53827049011725714 12 4612 11 3229 33 4143 1 2894
2987 0.70335376493384627 3.4848222055979869 1.5506409564153516 144 131 123 1.2694606893824096 12 4611 11 3230 33 4144 26 3244 1 2893 29 4137
2988 -0.65968518786643038 1.7484206756715071 3.1132484512339991 51 32 18 0.84359887242874909 12 3090 11 3233 39 2653 6 494
2989 0.27756563433725334 2.9678344405366337 2.0274679658690835 138 125 115 0.34537351767554686 12 4538 11 3240 16 225
2990 0.42574887631565805 3.2036827875325793 1.8080885113549039 106 93 85 0.30219386422652372 12 4575 11 3249 1 2085
2991 -1.0106795314209955 1.4363668988466862 3.3823966280314788 100 78 64 0.58761448090236668 12 960 11 3259 6 1780 9 2796
2992 0.57063842234282058 3.4819089896720166 1.5637890921990221 131 120 114 0.18754169419215383 12 4646 11 3273 1 2239
2993 0.24384775227833119 3.0572731130345177 1.9482036764381918 104 91 84 0.29983869915320527 12 4566 11 3276 1 1997 37 2384
2994 -0.1473847301621522 2.6214739596806167 2.3368510437092853 80 60 51 0.78972023179398576 28 2241 11 3302 16 280
2995 0.42460301626120805 3.4119472060941396 1.6324028161548823 144 126 122 0.65500131794138494 12 4662 11 3311 1 2800
2996 -0.17113835289386908 2.6481029090429336 2.3276444095207571 130 113 105 0.36899382662094532 12 3313 11 3321 38 1590
2997 0.19019133119277942 3.1182175479102918 1.9053202013224304 148 131 124 0.25784922807086019 12 3473 11 3325 16 270
2998 -0.046381957094080231 2.8289257103948828 2.1657825533662538 157 140 132 0.27336684005482204 12 3384 11 3326 38 1574 39 1840
2999 -0.060895002909592065 2.8226314709925115 2.1768054458079078 91 74 67 0.36738956442274151 12 3388 11 3330 16 284 38 1583 10 1498
3000 0.33825084471994676 3.3435155280588509 1.6963896610907869 76 63 55 0.40041878073638393 12 4658 11 3331 16 1177 49 280 38 1540 39 467
3001 0.33768752126522206 3.3442193178349178 1.6959808459851426 76 63 55 0.30685582625304347 12 4659 11 3332 39 468
3002 -0.83430612268901128 1.863287338451304 3.0385327589387114 64 42 31 0.63048473343807676 12 1111 11 3336 38 2239 7 2125 40 2765
3003 -0.84397700642105933 1.8624994495029172 3.0317211554968533 64 42 31 1.3350258146780694 12 1110 11 3337 38 2240 6 451 42 462
3004 0.1518760752345632 3.1236106021466292 1.8977226597781172 134 117 109 0.48861403325099051 12 3503 11 3343 38 1556
3005 -1.0853763106289793 1.6169929021540215 3.2495446184745442 138 116 105 0.5176176754281101 12 1069 11 3369 39 3243 6 756
3006 -0.63466915663961865 2.1744068118734146 2.7678541501942457 57 35 24 0.46523046811986218 12 1211 13 547 11 3373 38 1680 10 2292 9 2273 16 1234
3007 -0.98331481063349035 1.7453654658610656 3.1443934922416075 122 102 91 0.32910390816098894 12 1099 11 3375 49 808 16 401
3008 -0.88957307348153392 1.8645718662242619 3.0390735637618862 101 79 68 0.78384361424584148 12 3173 11 3376 39 3227 10 2358 7 2150 6 459
3009 -0.88877728517910126 1.8629407254005936 3.0385138736880748 101 79 68 0.51872316167232602 12 3174 11 3377 7 2151 6 460
3010 0.11907351697833599 3.1376664705632038 1.893243490597466 136 119 111 0.33646062927766429 12 3548 11 3379 16 282 38 1575 39 525
3011 0.22382304948536211 3.3682571409361679 1.6743393117040584 80 67 61 0.74053031035154215 12 4694 11 3422 38 1572 34 435
3012 -0.15370581206207667 2.8677534568692327 2.1488979122624605 125 106 99 0.36808956730094672 12 4602 11 3427 39 1874
3013 -0.15370581206207667 2.8677534568692327 2.1488979122624605 125 106 99 0.36808956730094672 12 4603 11 3428 39 1873
3014 -0.16759101758074652 2.8566901960695836 2.1563881910235136 71 52 45 0.31575827979921234 12 4604 11 3432 16 1203 39 1881 10 1523
3015 -0.16759101758074652 2.8566901960695836 2.1563881910235136 71 52 45 0.31575827979921234 12 4605 11 3433 39 1880 16 1204 10 1524
3016 0.055978588878087973 3.155176010427442 1.8819795514185642 137 120 112 0.69076768804885136 12 3613 11 3434 38 1609
3017 0.0051014745390088809 3.10245143780684 1.9359418848025958 83 66 58 0.3978854388109796 12 4652 11 3444 16 1199 37 1881
3018 0.0067675697251561332 3.0999036432345917 1.9346172632560756 83 66 58 0.40768131248399408 12 4653 15 2956 11 3445 39 1842
3019 -0.023911066964825565 3.0699347954336216 1.9645005266699556 147 130 122 0.27378078358282948 12 3584 29 1561 11 3448
3020 -0.095269328283901403 2.9905896868356678 2.0350937748416902 101 83 71 0.51499928463327382 12 3551 11 3463 10 310 39 593
3021 -0.10448205356928703 2.9827731598589047 2.0411637001472318 127 110 100 0.86726123566509994 12 3546 11 3469 37 1014
3022 -0.3789929785546069 2.6697860933560214 2.3352412897899328 125 106 99 0.17566127565763698 12 3429 11 3493 10 1600 38 2238
3023 -0.075870968097672395 3.0873735807957483 1.9527232975579356 141 124 116 0.59025231254169963 12 4671 15 2968 11 3512 16 1216 38 2220 39 2614
3024 0.16863835190632642 3.4364581513596373 1.6344328068527922 146 133 127 0.41061994750807973 12 4784 11 3522 16 296 26 1873
3025 -0.2478590728874917 2.9013939996542359 2.128741261951133 126 107 100 0.33819556439932691 12 3567 11 3538 38 1682 39 667 10 407
3026 -0.25848049136105672 2.8933014514088553 2.1377021954623441 72 53 46 0.29787465098850369 12 3565 11 3541 16 350
3027 0.17124072921914213 3.5006437970370339 1.5989305102016025 141 128 122 0.46343094372073484 12 4848 11 3569 16 308
3028 -0.13017372997182972 3.2072892899769285 1.8548722428309197 110 92 80 0.67619015251013581 12 3783 11 3631 1 484
3029 -1.0947558656402891 1.983645292940305 2.9625234116909542 92 70 59 0.68455165259743178 15 502 11 3632 16 1372 6 437
3030 -0.66852393623577422 2.513815280352278 2.4971883920156364 138 119 112 0.24150787272638113 12 1706 11 3634 16 458 38 1772 39 2044
3031 -1.2432734435198765 1.8210310554902511 3.1068783698057718 73 53 44 0.47656051803839283 12 3243 11 3642 49 2552 16 1867 38 2715 10 2928 31 2421
3032 -0.85422679600428453 2.3148411864183691 2.6740939326379358 116 96 87 0.22633167749781641 12 3404 11 3663 16 1334 10 2361 9 2310 8 1766 40 2374
3033 -0.35880906645731075 2.9429071099760442 2.1065436518951586 104 86 76 0.33941921588972074 12 3672 11 3665 16 1274
3034 -1.2163656227739277 1.8951651400558929 3.0343212809743432 120 100 89 1.3699169698465101 12 3274 11 3676 30 1856 49 1100
3035 -1.1650677843429498 1.9708525176673648 2.9810843636812745 118 98 89 1.2035783677510672 12 1368 11 3699 16 623 38 2339 49 1018 10 2454 7 820 8 2769
3036 -1.2613037654421266 1.867876265580952 3.0764332649664077 122 102 91 0.33005356755598408 12 1312 11 3706 16 663
3037 -1.0258794606974768 2.1557080342298751 2.8149095456133648 132 112 101 0.49492856207433267 12 1496 13 697 11 3708
3038 -0.18994609634336923 3.2426903251388981 1.8332818012709819 169 151 141 0.25371629638876203 12 3888 11 3721 37 2012
3039 -1.2033832970721607 1.968623770105997 2.9843916052858099 75 55 46 0.67259464678447911 12 1387 11 3724 6 470
3040 -1.2023248740283408 1.9848915809560685 2.9719954391507821 114 94 85 0.50225538145529125 12 1421 11 3738 16 1432 38 2729 10 2921 7 2229 6 458 8 2785
3041 -1.1101777952821972 2.123968364912411 2.8532454047385296 113 93 84 0.11768290979174538 12 1534 11 3761 30 597
3042 -0.85483414587457607 2.4375143663875445 2.5879440266432345 109 89 80 0.45562761282428976 12 1811 28 830 11 3774
3043 -1.1543344224064949 2.0761973471690771 2.8952232045908652 119 99 90 0.45478235582877496 12 1510 11 3778 49 1033 30 1823 38 2362 7 697 9 2419 8 2092
3044 -0.47848914480666765 2.9259965267817201 2.1323073714318124 132 114 104 0.53499125726979013 12 2237 11 3781 38 2292 39 2002
3046 -0.78954586558188333 2.5829046031541174 2.4498387270243089 81 61 52 0.78760963118546379 15 1148 11 3825 49 2348 13 3196 39 2784 10 2343 8 1722
3047 -0.98355860933957251 2.3793298929295141 2.6356493643123731 82 62 55 0.31762940807555645 28 755 11 3847 49 845
3048 -0.55239739945410293 2.9277445000663995 2.1354296100985315 116 96 87 0.44069943581744336 12 3810 11 3854 38 2309 39 2039
3049 -0.51542170937510146 2.9937187110396946 2.0815145242515807 96 77 70 0.43627930259369424 12 3855 11 3866 16 538
3050 -1.2103462698374148 2.1363731012922722 2.8492527284634237 123 103 92 0.5428657711431587 12 1666 11 3876 49 1101 16 762 10 2485
3051 -0.54555719882612186 2.9816148226445427 2.0906019796394242 89 70 63 0.22188552060173991 15 2973 11 3882 49 505
3052 -1.0068088130586117 2.4176459683798321 2.6024194509824472 104 84 77 0.3245311443855104 12 3596 11 3906 30 523
3053 -0.54024349703393704 3.0274441564290457 2.0541845896419599 89 70 63 0.61150372726107538 12 4865 15 1756 11 3922 38 2319 16 573 10 572 9 343
3054 -1.1047407802053655 2.3261162022205539 2.6825317462925948 106 86 79 0.43514741666201373 12 3559 11 3931 49 997
3055 -0.6886369509091379 2.8674361743007633 2.2009215875032893 153 133 124 0.40995661752050089 12 3841 11 3949 37 2001
3056 -0.76933013315631371 2.781346365871546 2.2804903863369432 123 103 92 0.16148851589434279 12 2305 11 3955 39 2208
3057 -0.70017190866860102 2.8626320739201381 2.2124432591403367 96 78 70 0.83944247520082493 15 2880 11 3958 16 1423
3058 -0.72207484024831325 2.851250898065032 2.2097178270553459 129 112 104 0.61170829943012783 12 3847 11 3962 49 611
3059 -1.3732490067078573 2.0399785086081965 2.951555985616042 107 87 76 0.64235893641856756 12 1688 11 3963 16 891
3060 -0.52219653734404525 3.1220018778068361 1.9731206092649787 125 106 99 0.50643097340052745 15 3174 11 3984 16 610
3061 -0.79071791389724722 2.8355284523207507 2.2392705269175921 117 94 86 0.088125291971739822 12 2385 11 4020
3062 -0.98934607162995458 2.6963766094997967 2.3808942277193306 98 79 72 0.35239309275774983 12 3883 11 4059 16 1518
3063 0.10687259963737873 0.6741840875378684 3.9133610939236538 94 75 68 1.0192572900975299 12 317 11 4397 49 3061 30 2960 9 2629 40 2235
3064 -0.3607773279496051 0.31596739901201087 4.2365858570406729 125 104 93 0.7138139196283485 12 2716 11 4416 49 3823
3066 -0.37453422395807678 1.0268311720239822 3.6606711306069695 84 62 50 0.72907233710685071 12 2885 11 4465 39 3127 9 2673 8 3446 40 2937
3067 -0.50756713864437397 1.0970105905693288 3.6071764944009583 100 78 64 0.097290472590795249 12 4303 11 4485 39 3137
3069 0.71670003540145033 3.0275371770221198 1.9257446188087721 140 123 116 0.18337584087457806 12 5362 11 4533 39 1727
3070 -0.89776070155486021 1.0832177614106804 3.6445537366517451 104 81 65 0.47597425271125915 12 2970 11 4541 10 3113 9 3087
3071 -0.86056997680448433 1.1643952581511023 3.5822878677801904 110 88 74 0.46327353639398866 12 4351 11 4543 39 3172 6 2936 9 2757
3073 -0.99292216094793084 1.1848412434123876 3.5751728196697758 82 60 46 0.68981226957303921 12 3005 11 4556 38 2622 39 3203 10 2825 9 2974
3074 -0.70300454444978366 1.6195600296733381 3.2159852213747357 90 68 54 0.58852642980676195 12 3068 11 4561 6 1613 42 1205
3075 0.58140692396705906 3.3367290149297282 1.6792467418521599 145 128 119 0.68510236433765825 12 5424 11 4569 16 1149 49 236 33 4077 39 1755
3076 -0.62759046556511588 1.8244118834901286 3.0518210690179468 55 41 30 0.4588887182736987 12 3107 11 4577 10 2283
3077 0.45696350818872566 3.2043746674855211 1.8022452691262718 143 130 122 0.34720969134163582 12 5414 11 4578 16 1711 1 2094 33 3085 38 2149 34 1200
3078 -0.86395518348469702 1.5867500980183811 3.2618571495769921 98 75 61 0.26261496892802128 12 4416 11 4584 39 3474
3079 0.4834133640581354 3.3625785043507515 1.6587427283215703 147 130 122 0.53700241317501241 12 5443 11 4591 16 1162 38 2159 39 1767
3080 0.25885713493064533 3.0663705393536826 1.9364788023369222 142 127 119 0.13063159047156675 12 4568 11 4593 16 245
3081 0.51792422941423444 3.412116482130239 1.6199543760872146 139 126 120 0.1935602914271827 12 5450 11 4594 24 941
3082 0.46210706258085416 3.3563931616851237 1.6725599259119788 105 87 85 0.82031233685184191 12 5446 11 4595 16 1163 38 2162 39 2574 37 2427 46 2027 34 1638
3085 -0.96862818188020561 1.7913611299948804 3.1025342209370232 83 65 55 0.85090975059203722 14 530 11 4631 49 2412 30 1714 16 1798 38 2673 12 3168 39 3234 31 1586 7 2231 42 489
3086 -1.035405758191382 1.7505994271486403 3.1435829179607371 121 101 90 0.37310511245314759 12 4457 11 4638 38 2678 39 3242 10 2860 7 3103 9 2789
3087 -0.70867442552399618 2.2800011236616893 2.6895618120722697 104 84 75 0.43818658786613807 12 4533 11 4667 39 3217 10 2798
3088 -0.67731750224293208 2.3371481524162077 2.6408203397865884 108 88 77 0.67323217405285396 13 2178 28 666 11 4671 15 749 49 569 16 1269
3089 0.11322323341354064 3.3838872452252371 1.6820210027105196 102 89 83 0.19173201501067819 12 5505 11 4675 49 316
3090 0.022742838843483194 3.2814070823205856 1.7821354530751776 136 118 109 0.43543374771950522 12 5496 11 4682 38 2645
3092 0.11186366014404239 3.4211212390939396 1.6591286053377126 98 85 79 0.37902326437532369 12 4808 11 4689 16 1211
3093 0.11186366014404239 3.4211212390939396 1.6591286053377126 98 85 79 0.37902326437532369 12 4807 11 4690 16 1210
3095 0.084271359560501774 3.4152917881020413 1.6665760240463443 136 123 117 0.22430636991529762 12 5523 11 4707 49 323 16 1217 38 2222 39 1846
3096 -0.32724376903570168 2.9135134960101872 2.1237544236177248 77 59 49 0.14456465139982391 12 3634 11 4712 16 1258
3098 -0.18564728590727159 3.1492574045104433 1.9161108649598508 131 112 105 0.41291349165205538 12 4749 11 4747 16 1247
3100 -1.1919539967842814 1.9319773729637535 3.0121001673598404 84 64 55 0.4142709755758629 14 684 11 4756 31 313
3101 -0.29554182973068804 3.0733894803195407 1.9899151478944999 138 120 109 0.23301369841650449 12 4752 11 4764 49 411 30 253 16 414
3102 -1.1876116912842061 1.9600788457065212 2.9907867876988323 84 64 55 0.18742938575013404 13 521 11 4766 31 296 7 2232 16 1416
3103 -1.2360341518715221 1.9651648453990904 2.9917526161483039 125 105 96 0.82543848174784351 12 4542 11 4782 30 2547 31 2383 7 3079 6 1564 8 3286
3104 -1.1005127153406138 2.150857957795719 2.8319114320886825 129 109 100 0.66936643776117999 13 2142 11 4792 49 2480 30 1798 16 1875
3106 -0.95226890833606825 2.3521728846014582 2.6542146496724319 119 99 90 0.3252851527948421 12 3478 11 4799 30 1723 38 2720
3107 -1.2326504682567707 2.0305881991693293 2.941346596371595 124 104 93 0.90971203273738832 12 3375 11 4819 49 2554
3108 -0.53899968949946586 2.962742566574565 2.0977680247811459 133 113 104 0.37221811510721364 12 4801 11 4841 30 316
3109 -1.3373573627948061 1.9662630118448459 2.9987669972114483 134 112 101 0.42270293399202252 13 2059 11 4842 15 549 49 2599 30 1929 16 1909 31 1616 6 512
3110 -0.78986033900823771 2.6490819484121162 2.3941935104099921 119 99 92 0.7400409814862674 26 657 11 4846 49 647 30 389
3111 -1.4036912083569262 1.9280974650029867 3.0366197097482264 126 104 93 0.57214010660180525 12 3392 15 528 11 4863 13 562 30 2595 16 1926
3112 -0.61784836567290125 2.9005641828396165 2.1676788779381719 125 106 92 0.62498284060568632 12 4798 11 4864 38 2710 39 2747 10 2301
3113 -1.3624671003944637 1.9992808048496729 2.9787755236069251 88 68 57 0.52584097402983143 12 3417 11 4876 31 1614 42 450
3114 -0.92405853519090164 2.5814063735633677 2.464124529079414 125 105 92 0.17340495389130464 15 2683 11 4892 49 778
3115 -0.98058572707719305 2.5311612959325274 2.5067391012909015 122 100 89 0.49611495945515377 12 3674 11 4905 49 851 16 1469
3116 -0.75447132954916762 2.8646008115505865 2.2094043734112092 81 68 62 0.27996782560559924 12 4845 11 4920 30 380
3117 -0.75447132954916762 2.8646008115505865 2.2094043734112092 81 68 62 0.27996782560559924 12 4844 11 4921 30 381
3118 -0.7724577554570925 2.8572456285719792 2.2170858776669449 113 96 88 0.19670655158490344 12 4851 11 4930 49 636
3119 -1.0831275749604401 2.4769769146577456 2.5618722160000114 107 87 78 0.35657185961271126 12 3687 11 4935 37 1942
3120 -0.84182701994496711 2.7994415657205369 2.2698184571180162 120 100 91 0.57444629819111026 12 4837 11 4945 49 2366 30 2449
3121 -0.8611713839723335 2.811973103175375 2.2666063939879488 123 102 93 0.41446634219020939 12 4861 11 4960 49 2368 30 1688
3122 -0.65431714550645836 3.0981512515188983 2.0057334721570244 116 97 90 0.68966441624784258 29 1628 11 4969 16 1453
3123 -0.69060737362644753 3.1123578547887152 1.9999906398474459 118 99 92 0.90630523927907447 29 1651 11 4989 16 1479
3124 -0.66247298222711692 3.1559820280770134 1.9563176500554313 122 103 96 0.54370387026202527 26 1287 11 4991 30 354 49 578
3125 -1.0805692212127587 2.631723126804407 2.4285706942310319 113 93 82 0.47478807026103848 12 3873 11 4994 49 984
3127 -1.0733846077014155 2.7032418529545241 2.3806751657723542 86 64 53 1.0275797148334305 14 3590 11 5011 30 589 49 970
3128 2.7261876523709621 2.3261702661352563 2.3522643973453587 144 126 114 0.68059973492108339 12 5707 11 5227 37 2723
3129 2.444663287525922 2.5880074692758037 2.1408836003128822 142 129 120 0.48821876935466119 12 5195 11 5274 37 2225
3130 0.027709808175204024 1.6619099663316426 2.1604856994341746 146 152 158 0.17066880845771798 12 5204 11 5353
3131 -0.28585109507642464 0.51501049913647856 4.0546245004755903 119 99 90 0.69456029847227874 12 2759 11 5366 30 3343 49 3820 10 3056 4 3595 9 3061 8 3719 21 1351 3 3947
3132 -0.7445291445139246 0.98180862287546222 3.7167193533134637 94 72 57 0.64490372219276071 12 4309 11 5424 38 2855 39 3583 10 3265 6 3325 9 3204 4 3567 40 3172 5 3191
3134 -0.073453098917542897 2.0723545910362908 2.5381882705886532 138 156 173 0.34516905767165501 12 4396 11 5437
3136 0.55929076103184217 2.7651129689979781 2.1604964184260029 141 124 116 0.52394142989358916 12 5331 11 5445 24 874
3137 -1.0920014856150622 0.90844403154114839 3.8010995591668824 104 81 67 0.86158834238505189 12 4334 11 5452 49 4310 30 3415 10 3282 31 3443 5 3346
3138 -1.0939000088839468 0.9405427521783406 3.7759405122255774 76 54 40 0.56203566237648406 12 4340 11 5456 49 3916 30 3059 10 3284 31 3297 5 3201
3139 -0.76562665102615435 1.4989284122164805 3.3114918640910469 95 73 59 0.77458725525418126 12 4388 11 5469 6 2880
3140 0.70081663390180415 3.3802790614666454 1.6274576690656 144 131 123 0.57730052036039259 12 5838 11 5473 38 2586 39 2540
3141 -1.0540396205289431 1.2437189097475316 3.5321837962543401 74 51 37 0.67159940930024487 12 4376 11 5477 49 3913 30 3051 38 2875 31 3251 7 3969 6 3183 5 2950
3142 -0.8033815331134615 1.6218633540922678 3.2242906802575457 97 75 61 0.7331149421379799 12 4414 11 5482 6 2854 42 2090 37 557
3144 0.19728182863325072 3.0366039061404995 1.9653281677807164 114 104 95 0.93900036477137472 12 5415 11 5489 39 3129 34 1169
3145 0.16688761489469592 3.087822685338327 1.9233412369377845 138 125 117 0.73292335059832314 26 3818 11 5497 24 788 38 2862 39 3132
3146 0.42119306380874882 3.4294565211738939 1.6161313951824456 90 79 73 0.55288360024078453 12 6134 11 5499 32 4276 2 5585 24 902 37 3366
3147 0.43928801187291316 3.4969010994755547 1.5632160462956206 150 139 135 0.55634595273295895 12 6144 11 5505 32 4282 24 2788
3148 -0.92336217910108365 1.8427983575329128 3.0573878933779937 117 97 86 0.55205028701815118 12 4462 11 5510 38 2670 39 3485 7 3047 9 2742 10 3127 8 3227 40 2988
3149 -0.75437866260011643 2.0507003095002823 2.8891961406529014 90 68 57 0.91389305769926166 29 3425 11 5513 38 2890
3150 -0.02642759468151263 3.042384951363676 1.9907590556512635 144 125 118 0.32767428677992838 12 5452 11 5520 16 1751 49 2129 38 2637 39 2607
3151 -0.95328114578722389 1.8919329059512164 3.0325574025635849 99 79 70 1.0017089917868158 12 5363 11 5525 49 3267 30 2463
3152 -0.51881220684280827 2.532393200885823 2.4583000436621498 79 60 53 0.67807511997883307 29 3598 11 5537 49 3160 16 2153
3154 -1.2663682720413294 1.6896515240630667 3.2076236229687285 113 93 86 0.71838987400584087 12 4474 11 5549 49 3956 30 3096 16 2194 14 2797 38 3048 7 3935 6 2871 42 2093
3155 -0.97333047540569595 2.042389098755816 2.909199631927291 126 106 95 0.74428456927785347 12 4513 15 3479 11 5551 13 2954 49 2418 38 2910 39 3495 10 3129 9 2750 8 2647 40 2793 41 1295 6 1521
3156 -1.3284161372371159 1.6619615198274724 3.2364247729231361 75 57 47 0.43232899324776058 12 4476 11 5557 16 2202 31 2964
3157 -1.3036752469551209 1.7052923371644468 3.2011560584672258 115 98 88 0.72498611475665131 12 4480 11 5559 16 2203 49 3960 38 2920 31 2469 7 3940 6 2872 37 694 42 1728
3158 0.0039840079066340147 3.3841346217873469 1.7031415686212035 111 98 92 0.60739173947431802 12 5923 11 5564 16 1770 29 4058
3159 -1.0617808925633709 2.0316098023112525 2.9200737622536015 108 88 79 0.88892366512296417 12 4530 11 5567 49 3295 14 2917 16 1847 10 3134 7 3028 8 3234 37 816 41 1303
3161 -0.37990447157424334 2.9166918071306425 2.127003440841547 133 115 105 0.59891134957249026 12 5472 11 5574 30 2376 49 3836 16 1803 38 2677 39 2664
3162 -0.089953624618520564 3.3123867646815142 1.7683470043118965 113 96 89 0.53374876188054543 12 5537 11 5575 1 2743
3163 -1.3682731380414037 1.7315343532371745 3.1867634605791135 118 100 90 0.65916597236216534 12 4495 11 5580 49 3378 30 2579
3164 -1.4580373548965724 1.7695642261861866 3.1591630646493098 115 93 82 0.73360349652868972 12 4524 11 5599 49 3416 30 2607 16 2232 31 2476
3165 -0.62237482839894287 2.7997547230696771 2.2504145987834838 130 110 101 0.38674500210509688 12 5479 11 5601 39 3228 37 2499
3166 -1.206424469181242 2.0820304905588403 2.898861826398639 86 64 53 0.61070918491412673 29 588 11 5605 31 1546
3167 -1.2677317614524681 2.1103525198337167 2.8758637814680514 93 73 64 0.70021009953079427 15 2435 11 5625 49 3348 28 1942 30 2556 16 1919 7 3050 8 3269
3169 -1.2923389252536501 2.2504419038735612 2.7767221119558325 111 89 78 1.5457821902345024 12 5462 11 5668 30 2574 6 1504 42 366
3170 -1.5275217874718499 2.0064031805920042 2.9846046834304478 91 71 60 1.0504214858093808 12 5444 11 5680 37 1027
3171 -1.6632013303737321 1.9056872722560505 3.0758194331866733 82 62 51 1.7430508140019711 15 561 11 5695 13 2098 31 1751 7 3240 49 2785
3173 -1.6592392203941733 1.962521753056927 3.0355970253174496 111 91 80 1.080837979366597 15 2398 11 5714 31 2464 7 3678
3174 -1.3980016768926626 2.2931075395087834 2.7460038245042577 124 102 91 0.67608941047778204 12 4714 11 5715 30 2602 7 3030 6 364
3176 -0.22825465877355067 0.83969543436675942 1.4007159105683282 88 86 85 1.6603778595803815 11 5807 10 2604
3177 2.9560728241263696 2.0306895872086113 2.5533067869087671 103 86 76 1.054597712350626 12 5686 11 5863 16 2506 37 2705
3178 1.1274961565554653 -0.21437480609993076 4.5523094739925281 139 126 116 1.0154991203902017 12 5043 11 5865 49 4652 30 3786
3179 3.2492824763901798 2.4877345888668772 2.1594877264068266 139 122 112 0.64504985873101661 12 6040 11 5871 49 4074
3180 0.49042535052694003 0.26076045160933181 4.2220141481717883 144 126 116 0.85182080185183218 12 5100 11 5909 49 4498 30 3592 16 2540 39 3558 10 3237
3181 0.1565856566588433 0.574170667997699 4.001886320649966 124 106 92 1.5773525077919779 12 5139 11 5931 30 3610 39 3569 9 3188
3182 0.064275023236926937 1.6197424890750531 2.1186194059304722 61 73 85 0.012535342840206246 12 5736 11 5933
3184 -0.63007712024420537 0.46070248176637074 4.1416438840575145 84 66 56 1.2561254517618508 12 5193 11 5959 16 2566
3185 -0.0095737848120115068 2.1629278617136207 2.4612988182235704 22 31 49 0.66563743053163749 12 5780 11 5980
3186 -1.0763560051601835 1.1326765707607893 3.61812043017899 88 66 52 0.98547822245855854 12 5266 11 5998 49 3917 29 208 10 3283
3187 0.2069245440809338 2.7742478624185347 2.1956163017039256 115 96 87 1.7430837623027169 12 6100 11 6001 49 3779 30 2950 38 2857 39 3431 10 2702 40 2647
3188 -0.80709509614196906 1.5731093084184489 3.2642524529671499 96 73 59 0.48577571330360081 12 5299 11 6004 6 3146 42 2100
3189 -0.80709509614196906 1.5731093084184489 3.2642524529671499 96 73 59 0.48577571330360081 12 5300 11 6005 6 3147 42 2099
3191 0.47775848053834447 3.3328182997802167 1.6925022559342355 132 119 113 0.77344370220910275 12 5848 11 6010 49 3035 30 2330 46 3527 37 3146
3192 -0.99708643297222288 1.5699781222050555 3.2786313979775552 106 84 73 0.58152168252357084 12 5311 11 6019 49 3912 30 3049 16 2407 38 3030 39 3596 10 3281 7 3925 6 2885 9 3089 42 2116
3194 0.066284421859409193 3.0549294915628704 1.967087406873316 150 137 129 0.47046612383275566 12 5851 11 6027 49 3793 30 2338 30 2964 16 2120 32 3609 2 4519 1 3280 38 2868
3195 -0.57557894027147871 2.2625419000164597 2.6891500989747041 93 71 60 0.58277047194192666 12 5385 13 3901 15 4532 11 6030 49 4262 30 3362 16 2402
3197 -1.1460528369147038 1.6370694037158646 3.2382360678808295 102 80 67 0.34242290384321938 12 5338 11 6037 7 3931 6 2876
3198 -1.1451142242077317 1.6364567216944461 3.2392877390392791 102 80 67 0.2547702777060834 12 5337 11 6038 6 2877
3199 -0.10736288740279927 2.9483847852455161 2.0778390215807359 125 112 103 0.51577916359960907 12 6123 11 6039 37 3153
3201 -1.0915198268979749 1.8060044879546857 3.1036377120602858 131 109 98 0.75464752719209638 12 5365 11 6052 38 2905 39 3498 10 3137 9 3094
3202 -1.257989741053229 1.7421878972081013 3.1698071977951745 112 92 81 0.85886616258232973 12 5373 11 6062 16 2446 30 3438 7 4087 6 2864 42 2087
3204 -1.18364249206322 1.8487547520282954 3.0838835184429403 125 105 94 0.58435771420388705 12 5380 11 6066 38 3053 7 3909 6 2834 42 2074
3205 -0.98219300029914136 2.1452098051118926 2.8251043681250283 117 98 83 0.36231613781090755 12 5401 11 6068 38 3047 10 3288
3206 -0.60114813346604201 2.7900164318929992 2.2597789387357037 125 105 96 0.5152915108675804 12 5888 11 6084 38 3045
3207 -0.64691376731245465 2.7892515237182449 2.2689748058976362 90 70 61 0.6801473251707314 12 5894 11 6094 38 3050
3209 -0.26723440164177487 3.4014710016893761 1.7000737219753506 104 87 80 0.38308468016496394 26 4526 11 6104 30 1555
3210 -1.528098400540377 1.8787560939266681 3.0852720372210252 66 44 33 0.48816566044916565 15 3474 11 6113 31 2941 13 2961 37 1781
3211 -1.5272972995292233 1.8785590108768662 3.0864930159364508 66 44 33 0.44209193639262245 15 3475 11 6114 37 1780 13 2962
3212 -0.31801805247467402 3.4234671263171679 1.6977739344656211 101 84 77 0.97094911727272581 26 3907 11 6118 16 2196 33 3982 1 2732 38 2704
3215 0.11718021963644104 -0.041472312613251357 4.4877452234099904 116 99 91 0.68180833072323432 12 5683 11 6254 49 4690 30 3819
3217 -0.25131190509746304 0.36007424886926154 4.1926344310614505 117 97 86 0.56149162585099277 12 5712 11 6274 49 4696 30 3826
3218 -0.25131190509746304 0.36007424886926154 4.1926344310614505 117 97 86 0.56149162585099277 12 5713 11 6275 49 4697 30 3827
3219 -0.32915469028222155 0.48001698329447506 4.086478981803837 92 72 61 0.95420495138990724 12 5727 11 6282 49 4698 30 3829 31 3611 4 4055 21 1512
3220 -0.55305957958272367 0.64360193716189862 3.9876311955737935 63 47 39 1.2526628207061743 12 5740 11 6292 30 3834
3221 -0.69181982156247157 0.61197451622179266 4.0183506772935988 93 74 67 0.71906604664638485 12 5742 11 6294 49 4548 30 3839 16 2570
3222 0.99279519561686425 2.8971904726875075 2.0211389583896708 100 81 75 0.90875886339122924 12 6241 11 6300 32 4833 2 6527
3223 0.7841361707876765 3.193902120149736 1.7844130987621616 136 123 115 1.053454947958945 12 6252 11 6312 49 4149 26 5132 33 5226 32 4827 1 3828 24 4421
3224 -1.1056592025739982 1.1077844175778979 3.6450715792753416 109 87 73 0.74108606938062771 12 5265 11 6314 30 3667 16 2392 10 3404 6 3432 5 3333
3226 0.080080415195071197 2.8978732012562172 2.0958952812678175 103 85 75 0.69647526929788683 29 6190 11 6329 49 4205 30 3326 33 4986 32 4588 1 3549 24 3712 38 3021
3227 -0.93750680225621053 1.6477078927324074 3.217431406939542 76 55 44 1.4001286223338676 12 5791 11 6331 6 3142
3228 0.073684889555439378 3.1163677209055063 1.9008532433433434 138 121 113 0.69110287521086033 12 6267 11 6338 16 2586 49 4207
3230 -1.1675754925989659 2.1207377781757382 2.8587450194712294 99 79 68 0.81549349827653905 12 6114 11 6364 49 4319 30 3429 7 4064 8 3604 9 3208
3231 -1.4417910533713334 1.9164020222368117 3.0478207478167678 103 81 70 0.60109535092772837 15 4113 11 6370 49 4344 30 3456 16 2633 7 4083 6 3134 42 2305
3232 -1.6470686372405232 1.6760554489535586 3.2558973420957513 112 90 79 1.3079288465776129 15 4085 11 6372 49 4369 30 3487
3233 -1.0351886855799168 2.4351818014873086 2.5949869317446059 86 66 59 1.3039336458448469 15 4204 11 6375 13 3960 49 3921 13 3679 30 3072 16 2463
3234 -1.5284114710811463 1.8463631767050099 3.1141392817843281 112 90 79 0.81250159949953193 13 3578 15 3469 11 6377 37 2401
3235 -1.6391057475300594 1.7488102262930516 3.1978648637407208 114 92 81 1.2107491555455916 15 4088 11 6378 30 3712 49 4372 7 4111 19 1247
3236 -0.62100877386142117 3.1049514294391107 1.9911648940648639 93 76 69 0.87626946424580099 26 4461 11 6385 49 3871 30 3014 33 4563 39 3488
3239 0.1713336980613723 2.9635725426578889 2.0318032583345098 130 113 104 1.0732547790780556 12 6259 11 6481 49 4511 30 3614 16 2719 33 5208 32 4798 2 6496 1 3818 24 4375 46 4002 45 3461 46 4128 38 3126 37 3473
3240 -0.18723811418506606 2.9737878734120904 2.0588298324068859 135 120 111 0.96650905184045677 26 4868 11 6491 49 4232 33 4984 41 1129 6 1364
3242 -1.7241901852168522 1.7437467925469161 3.2056415084627043 95 72 58 1.1132367045772782 15 4093 11 6511 49 4584 30 3721 31 3421 19 1338
3245 0.4228348157156151 -0.13402226448035839 4.5287714645528272 119 102 94 0.75721544956540077 12 6321 11 6588 16 2871 37 3311
3247 -0.13480660671963007 3.0930161021682245 1.9623449582786965 140 123 115 0.39913532956204006 29 6706 11 6611 16 2845
3248 -0.26874553172051718 0.87587441648210851 3.7670919600296879 125 105 94 1.5549793255445277 12 6403 11 6634 49 4886 30 4118 16 2891 39 3823 31 3709 9 3362
3249 -0.07174636832946886 2.7942239744461475 2.2007998106126321 99 81 71 0.88425884349497907 12 6415 11 6640 49 4811 30 4015 16 2840 10 3506
3250 -0.25532058266927449 2.7109587499795107 2.2999972417448924 127 109 102 0.72211485565859257 12 6416 11 6641 30 4016 16 2843
3251 -1.4739001238271523 1.5955271968619844 3.2913278156267478 114 92 78 0.51622697267729478 13 4345 11 6670 15 5016 16 2879
3252 -1.1393564123610087 2.222144942096079 2.7508921781425046 126 106 95 0.064749065282029686 11 6690 30 4098
3253 -1.0527755413051858 2.6368476530761638 2.454312753371239 117 97 86 1.8193923727018539 12 6448 11 6693 16 2898
3255 0.31499606080014819 -0.36325293090894301 0.97496047792498941 79 80 82 1.9175375376551838 12 6495 11 6707 16 2914
3257 -0.22393008853256408 1.6775375647360897 2.9419327070325179 0 0 0 2.2065998755788683 12 6498 11 6713
3258 0.0091732748750066994 3.4423580098566449 1.6534234608633724 119 108 104 0.89424617523275529 29 4106 49 340 16 1774
3259 -0.16038886823387047 2.5917481657560399 2.3734510721490576 83 72 68 0.91803781071373491 26 670 28 2200 49 364
3260 -0.46432844921665434 2.765483926401954 2.2626443132234013 119 106 98 0.28574467967629741 11 4732 49 469 30 290 39 2684
3261 -0.53122365866569654 2.6222559223827968 2.3854099281997239 113 100 94 0.17043810551574926 28 2269 49 498 30 307
3262 -0.58708666918067942 3.1416587205142732 1.9619342985121062 81 68 60 0.52152361487952426 29 1682 49 528 30 1623
3263 -0.69119796878476703 3.184382332912798 1.9375229424005211 94 80 79 0.17661087292530686 29 1736 49 596 30 1647 33 921
3265 -0.72042944175520629 3.0175664383757743 2.0751905606616421 110 94 89 0.4078180626396028 11 4968 49 612 16 758 39 2226
3266 -0.83060138031954833 2.0776538143443228 2.8640089764554468 81 65 56 0.34742626487520606 11 3474 49 663 16 1277
3267 -0.81828584657108561 2.3850638951448593 2.6109853557833582 81 64 57 0.64510210398261258 13 3081 49 664 16 1335 30 1662 7 408
3268 -0.83930195375173999 1.8828102451396616 3.0289289175822054 95 76 69 0.47846849557605919 11 3350 49 669 38 2246
3269 -0.81321081292288022 3.143590155279314 1.9807250201765634 89 72 65 0.94334649278165672 26 2849 49 681 30 1675
3270 -0.83457265295093053 2.5034890321928991 2.5198889937086211 122 108 101 0.34088740910879339 11 3805 49 685 30 399 16 590 13 1245 39 2197 10 1795 9 1721 8 573 40 1822
3271 -0.83924889214163834 2.3235174544704624 2.6646594643254473 79 62 55 0.59536547481001567 13 842 49 689 15 765 30 1674
3272 -0.8322363343726088 2.600940377533377 2.441596088109002 78 61 54 0.47082581788001138 15 2670 49 695 39 2810 38 2726 10 2364 28 1108
3273 -0.82586058051011801 3.5324886128091686 1.6563387925117981 79 60 53 0.60253975248040081 29 2371 49 702 30 421 26 3156
3274 -0.82704094739485656 3.5342056049716497 1.656613373665994 79 60 53 0.42733341026221267 26 3157 49 703 30 422
3276 -0.91198822980591221 2.0357024019951675 2.9035481671697574 115 95 88 0.68992091845631365 11 3519 49 749 38 2272 39 2763 10 2373 40 2397
3277 -0.92269049012951154 1.8620524545686543 3.0436931951455324 85 66 59 0.48629719502930219 11 3408 49 752 8 1975
3279 -0.88260681312010436 3.3074742907872561 1.8483561417135717 139 122 115 0.19600221942755056 29 1962 49 754 30 458
3280 -0.96997135114856936 2.4548684996698769 2.5702137647448646 84 67 60 0.29791115137814089 28 2115 49 833 30 505
3281 -1.0532009200740073 1.8533937082776237 3.0689394511650425 76 57 50 0.37694767569911769 11 3508 49 916 16 1311 30 1762
3282 -1.0354575891034339 2.3041753250263697 2.709256039708249 113 96 89 0.46249455465717365 11 3842 49 918 30 539
3283 -1.076223862893233 1.5771841508654076 3.2718866459950973 81 61 52 0.46518546245109493 11 1491 49 922 31 430
3284 -1.0269191343930497 2.9050649652036262 2.2056734927845461 117 98 91 0.21225966258801954 15 3021 49 931 30 562
3285 -1.0681651478404304 2.8411672753610531 2.2620846006948412 71 54 47 0.19227842644985185 15 2948 49 971 30 1800
3286 -1.1518004529901489 1.7604341170323445 3.1427978919118682 109 90 84 0.66457131736080832 11 3527 49 1010 16 1323 38 2295 10 2892 7 2341 6 611 8 2830
3287 -1.1581293602278795 1.8883441482715759 3.0393266891648136 72 53 47 0.49228911022429367 11 3612 49 1014 30 1818
3288 -1.1416918675754248 2.2629099558071584 2.7448866781483723 119 102 95 0.39142898625279565 11 3909 49 1026 30 644 7 555
3289 -1.1750043874813338 1.9984730551020213 2.9560013981060287 121 102 96 0.50389849975178569 11 2124 49 1041 30 656 8 1293
3290 -1.1665052490648156 2.2674404950009071 2.738292901618637 121 104 97 1.2499602534315464 13 2277 15 813 49 1050 30 668 16 1486 10 2917 9 2402
3291 -1.2313534598052787 2.2163792037501362 2.7880589752414964 110 95 88 0.88275169203877868 12 3529 49 1135 16 1510
3292 -1.2312596991771021 2.216419735246566 2.7886153114284857 110 95 88 0.6827635508693477 12 3530 49 1136 30 724 16 1509
3293 -1.2417720960448162 2.3003662772063564 2.7251605255602804 114 95 88 0.4918217078132926 12 3633 49 1149 16 1535 7 2090 8 2057 13 2342 15 881
3294 -1.2584977706887857 2.0854059450511895 2.892350025326877 111 94 87 0.3577986837280509 11 4856 49 1155 30 750 16 1481
3295 -1.2855610491837219 2.098688589459591 2.888440714433854 165 148 141 0.27702207967130293 12 3447 49 1180 30 783 8 2804
3296 -1.2624591367008762 2.6742375945895991 2.4220318753337589 129 109 98 0.97601956532026402 15 2814 49 1184 30 794
3297 -1.2649419932586305 2.780164107760136 2.3345673498345763 152 132 123 0.28374705753012214 15 1589 49 1185 30 799
3299 -1.3404793374970259 1.9520307409234325 3.0120967592273362 75 56 50 0.48785412644441162 11 3853 49 1237 30 818 12 1508 16 794 31 339
3301 -1.3749776266210085 1.5140459679030747 3.3506780119331032 88 68 59 0.2384987281074801 11 3530 49 1247 30 1932
3302 -1.4011882710184247 1.6791625866449706 3.2314699613534001 103 86 79 0.77934284229741169 11 3683 49 1283 30 873 16 1438 38 2365 31 524 6 1681 42 588
3303 -1.3547199699645169 2.8672331549326198 2.2765057428362203 152 133 126 0.66384332992133976 15 1784 49 1286 30 897
3304 -1.4474639476003508 1.8459313462156564 3.1046293415835979 52 33 26 0.83206609677347088 12 1455 49 1345 7 2452
3305 -1.4444291078178102 2.7081329359537647 2.4255543708327467 119 99 90 0.29536140004445827 28 2398 49 1387 30 2016
3306 -1.492427445468349 1.8182037060861549 3.1256247621945481 110 91 84 0.35469378336427637 12 1446 49 1388 31 450 6 673
3307 -1.4967985142369613 1.806189704527809 3.1336182717305801 78 59 52 0.33749595792317483 12 1435 49 1396 16 877 30 987 7 2511
3308 -1.4963663450669016 1.8054927496593993 3.1335765574997607 78 59 52 0.46707071448224813 12 1436 13 461 49 1397 16 876 7 2510
3309 -1.4777239765029555 2.4771694005107707 2.6069168369618154 121 101 92 0.21510823865323903 15 1211 49 1415 7 590
3310 -1.5557916256714224 1.4307814377574506 3.428982717959097 73 53 44 0.82681339958002786 11 3628 49 1441 31 847
3311 -1.5668661340540977 2.3194088664634949 2.744254742801405 81 64 56 1.669521096279768 13 2514 49 1503 7 2194
3312 -1.6411198226744141 2.2997432476647379 2.766973139064977 83 68 59 0.89432074399944828 28 707 49 1589 7 877
3313 -1.6697039833342555 2.8575754743892139 2.3257894452371217 136 116 109 1.5279048771898298 15 1901 49 1633 30 1215
3316 0.68140711812533272 3.6619590943240596 1.4095629400287084 142 134 132 0.60340341343544079 12 5887 49 2059 33 4773
3318 0.37038594290782284 2.714120768985635 2.2137041590788544 126 117 115 0.73616261019406526 26 2675 49 2091 16 1144 24 805
3320 -0.1818428622479579 2.9294003742689689 2.1004501875752579 130 113 106 0.33906217022780627 26 2767 49 2151 38 2651
3321 -0.34725572329202831 3.1811508077532693 1.8992999081144641 127 110 103 0.65599031603303992 11 5607 49 2183 16 1829 39 2680
3322 -0.37405394768726569 3.1732361996681901 1.9137314121838804 106 89 82 0.39588721887006456 11 5612 26 2935 49 2192
3323 -0.38745964650869741 3.4300763754343628 1.7025154293500007 170 157 151 0.56910799909644549 11 6130 29 4093 49 2199 30 1575 16 1873 38 2725 39 2713
3324 -0.39107065204267927 3.5374803962475059 1.5989655925667441 114 101 95 0.45959114590708727 29 5253 49 2201 16 1886 30 1573
3325 -0.54341636277734584 1.2693180096771077 3.4725109883797942 88 66 52 0.46396923499838599 11 4513 49 2226 30 1592 16 1150 31 2930
3326 -0.48695814947137189 3.3386547904908985 1.7897923928959236 102 89 81 0.43520165750741596 29 5161 49 2227 16 1883 38 2735
3328 -0.52986053129971211 3.3632587976089439 1.7738839640998225 121 104 97 0.89269851517036691 26 3869 49 2245 33 3949
3329 -0.66866490046424121 2.1979808029867707 2.7502627629438829 92 73 66 0.71471522750033745 13 2060 49 2284 38 2247 11 3413 39 2696
3330 -0.64460947624423881 3.3003276474847456 1.8453198164947302 118 101 94 0.74787413503707167 29 3999 49 2289 30 2410 11 6163 39 3253 10 2801
3331 -0.66635462309163762 3.1903245786729149 1.9297388478567503 133 119 116 0.50141801365477467 11 5703 49 2296 39 3250
3333 -0.81931036637811039 3.1627501952230417 1.9640785558057547 113 96 89 0.69390299639241693 26 2876 49 2358 30 1679 10 2830
3335 -0.84234461627428181 3.1372993731157544 1.9891593102425076 117 100 93 0.4040834360375114 26 2840 49 2367 30 1684
3336 -0.89957067343254626 1.7275251575083157 3.1478636131904851 63 43 36 0.57781607185982486 11 4606 49 2371 38 2652 39 3221 10 2818 31 2385 30 2445 9 2743 8 3236 40 2787
3337 -0.87754964931974067 3.1584592467046764 1.979048582677591 126 109 102 1.1745550611350342 26 1263 29 1708 49 2387
3338 -0.87962132726389153 3.1573694945815949 1.9777327354449095 126 109 102 0.85565423589608403 29 1709 49 2388 10 2393
3339 -0.89248528467388633 3.1303779705392536 2.0013915927973227 113 96 89 0.44305375363472493 26 1221 49 2396 30 1711
3340 -0.93805221259939897 2.1370367015619336 2.8266338563049724 110 91 84 0.68068595061022796 13 2090 14 2966 49 2403 30 2468 29 624 16 1833
3341 -0.96414515170014703 1.7529284416440791 3.1293126657712467 82 62 53 0.45922571060079165 11 3364 14 493 49 2410 30 1713 16 1255 39 2751 10 2382 12 3153 31 1606 6 1601 9 2762 8 2711 40 2798
3342 -0.97344748004782 2.1777058475840465 2.7941522301549901 110 93 86 0.56667933684220484 13 2132 15 666 49 2420 30 1734 16 1359
3343 -0.99337143360094704 2.0290954884983199 2.9181582377220825 83 64 58 0.39767332197025784 11 3574 49 2429 30 1743 16 1320 39 2802 9 2362 7 635 8 1956 41 992
3344 -0.98111651803787703 3.236151582782536 1.9228658971962032 119 102 95 0.66548051014116771 29 3961 49 2438 30 2487
3345 -0.98464769803681862 3.565017606628039 1.6461181827315943 115 96 92 0.50174908781921046 29 4219 49 2443 30 1765
3346 -1.0726236310470247 2.173528062272438 2.8078219088472798 122 105 97 0.2074385605634799 11 4788 49 2462 16 1419
3347 -1.0413110595286681 3.5521588065568408 1.6611369509273457 123 106 99 0.86033785531713725 26 3154 29 4209 49 2463 30 1792
3348 -1.0813876956367454 2.2904145203186879 2.7186759618446659 113 96 89 0.53577852088997735 15 807 49 2471 6 325
3349 -1.1238775823748368 1.5858022400237395 3.2767287620358188 100 80 71 0.088540536160827035 11 3381 49 2477 6 1679
3350 -1.1240547932936096 1.6968416668894724 3.1906859822561273 103 83 74 0.70796047093478154 11 4649 49 2478 39 3259 38 2273 10 2430 7 3148 8 2832 42 1211
3351 -1.1279972368563487 3.0701098581495714 2.0774310512574083 134 117 110 0.99067727354212543 29 3873 49 2512 41 825 36 1564
3352 -1.1279972368563487 3.0701098581495714 2.0774310512574083 134 117 110 0.99067727354212543 29 3874 49 2513 41 824 36 1563
3353 -1.1601047932898403 2.2537342887981229 2.7536295367201271 88 71 64 0.31674338017095183 11 4878 15 777 49 2517
3355 -1.1543505205229749 3.1870137324273982 1.9769555355121804 66 48 44 0.28936300663689196 26 1254 49 2528 30 692
3356 -1.1500137454788151 3.2900260495885734 1.8913718277497327 79 62 55 0.24205165338150283 29 1918 49 2529 30 1855
3357 -1.1851517485554977 2.5168203733023167 2.5409666862987956 121 102 95 0.43620800167011503 12 4790 49 2541 30 1859 9 2397 8 1872
3359 -1.2776532110228993 2.1378332500535757 2.8606499323380139 116 99 92 0.45311907618636132 13 2185 15 707 49 2580
3360 -1.2801153656429696 2.1403295899109209 2.8640532446624318 116 99 92 0.44939116318839578 11 5639 15 708 49 2581
3361 -1.3519775756420906 1.6708757636854537 3.2263654071977874 70 53 46 0.38480107065932473 11 4727 49 2598 16 1410 6 1670
3362 -1.3740241690842094 1.3566098887473454 3.4710348121472876 72 50 39 0.53018026473653779 11 3418 49 2606 30 1922 16 1317 31 2578 19 910
3363 -1.3643847162473461 1.8837406969599551 3.0652995486336305 114 95 88 0.59082271004174414 12 3329 49 2620 7 3149 6 580
3364 -1.3496792325825482 2.4430750157426933 2.6295368546411368 88 71 64 0.3342222280410172 28 2816 49 2625 30 1958
3365 -1.397701557766786 1.6903496336385269 3.2134654984520692 70 53 46 0.78606598955311102 11 4754 49 2637 30 2588 16 1882
3366 -1.3769099802310771 2.4352454626914026 2.6308625166516415 113 96 89 1.1795513107756996 15 1120 49 2644 13 2576
3367 -1.4020741942795665 1.8375413029678085 3.1032185452178536 110 91 84 0.91101393780473583 11 4818 49 2646 30 2592 16 1483 12 1383 31 2448 6 1621 7 2423
3368 -1.4079928296414899 1.8229790107451282 3.116529022590504 56 37 30 0.8153421792218557 13 2005 49 2649 15 438
3369 -1.4272637574557017 1.7790087870563485 3.1484038654340734 82 63 56 0.68707121105255742 11 4802 49 2661 16 1476 6 1642
3370 -1.4265741417600397 1.7786592546621491 3.1492685124835758 82 63 56 0.75231456457489587 11 4803 49 2662 30 901 16 1477 31 1731 6 1641
3371 -1.4229750332890669 2.3599468920588715 2.6949967732745117 78 59 53 0.16523935298714973 12 4782 49 2675 30 2609
3372 -1.4620630034892033 1.7539094642486606 3.178962983627232 76 57 50 0.62954251129950534 11 4810 49 2681 30 1993 16 1493 12 1342 42 1219
3373 -1.5386851004102349 1.8860991129434634 3.0888612425976167 43 24 17 1.1757855744735117 12 1599 49 2713
3374 -1.5381640823784763 2.0729975615250997 2.934757391309629 97 78 71 0.22055078621627897 15 698 49 2720 30 2041
3375 -1.4993776154157359 3.2100559686451118 2.000803254936049 74 54 47 0.23382606258840799 29 1782 49 2722 30 2051
3376 -1.590081842644484 1.40612014921135 3.4522337868731561 104 84 75 0.80396430025432808 11 3636 49 2729 30 2039
3377 -1.5630731525054509 2.126774967514276 2.8917761743164432 112 93 86 0.37574173521968568 15 742 49 2736 30 2053
3378 -1.5649964768194833 2.2470041913177239 2.813478901183939 128 109 102 0.90849632459427243 12 4771 28 2009 49 2737
3379 -1.6197092674509981 2.2131793957305419 2.8354932424044605 67 48 41 1.6365830466786098 12 5506 49 2763 31 2384 37 1981
3380 -1.6629742521821105 2.6852636290610161 2.4589144938147682 111 91 84 0.8391866436853449 15 2919 49 2801 30 2702
3381 1.2939633406834825 2.6792762343322041 2.1598119412342678 135 126 127 0.91964896279034436 26 3718 49 2976 16 1654 33 4020 1 3358 24 2901 54 2206 38 2089 35 1398
3382 0.13774529552390377 0.65077132634610313 3.9112636288458082 127 114 107 1.0430974017404424 12 2717 49 3059 30 2951 16 1658 38 2085
3383 0.0060431102511251944 3.4811747357463889 1.6172100629029496 123 112 108 0.66338452107095014 11 6073 29 5876 49 3075 16 2146
3385 -0.12665296407858942 3.3827937096657186 1.6952889990986055 117 106 100 0.60632973925491207 11 6082 49 3089 30 2353 16 2164
3386 -0.11921739654072737 3.682798439189114 1.4595130678318056 127 116 112 0.33374208007618156 29 5933 49 3090 24 771 33 4655
3387 -0.17478320117719687 2.7024429935759975 2.2788137478280874 116 103 97 0.74712506818236502 26 2626 49 3096 30 2358 24 640
3388 -0.210839780249828 2.6114936244820628 2.3625018877387807 79 66 60 0.87557358130028662 26 2575 49 3100 16 2123
3389 -0.44305145337599655 3.4710227849055371 1.6955600530392094 126 113 105 0.22354758046089232 11 6145 49 3147 30 2384
3391 -0.67519932451551723 0.92492003225667674 3.7550223264147804 73 53 44 0.73959882235240071 11 4487 49 3189 39 3150 10 2765 31 3015 12 627 7 3970 9 2950 8 3478 40 2973 5 2999
3392 -0.6298883458561183 2.5227378975705963 2.482811156322001 116 103 97 0.58367495658279156 26 2499 49 3194 33 2762
3393 -0.77290516184260927 3.53392411084707 1.6479424895876866 121 104 97 0.19264441030480892 29 5250 49 3229 30 2435
3394 -0.78995301962895814 3.6818454420486253 1.5267949904819382 118 99 92 0.67727999762165247 29 5939 49 3230 30 2438
3395 -0.80873002897352475 3.0316807985035461 2.0581016387801565 91 72 65 1.0252289316671386 11 6150 49 3233 16 2239
3396 -0.85156214650175444 2.9691381842777713 2.1215058096836508 90 75 68 0.29523290303561917 11 5710 49 3250 30 2453
3397 -0.91524740367378687 2.4775852055747474 2.550154140329211 114 97 90 0.2892689809319528 26 3586 49 3260 30 2467 30 3048 16 2210
3398 -0.92238572168789523 3.6024075115909815 1.6105207718342345 124 105 98 1.2908894911563094 26 4559 49 3272 30 2475
3399 -0.93497848060547972 3.2552568990951412 1.9027013940218889 124 107 99 0.67717944688272425 26 3827 49 3273 30 2476 10 3132
3400 -0.96963599450325688 3.6206014119892269 1.6050164508138398 129 111 105 1.2300347832790097 26 3976 49 3275 30 2484
3401 -1.0654621909500603 1.5910163225612783 3.260835086828207 105 85 76 0.64224509962238407 11 4617 49 3287 31 2450 8 3482
3402 -1.031134626104846 3.6695207494323716 1.5734733669682073 74 57 50 1.412935189785965 26 3990 49 3301 30 2502
3403 -1.1665168631942939 0.85816497876446729 3.8469073312837274 70 47 33 0.85000853879401639 11 4547 49 3313 5 3017
3404 -1.1402260940478366 2.9359388737368772 2.1969308123771176 125 108 101 0.37753602937142555 26 2701 49 3328 30 2536
3405 -1.1950492042226306 2.5372436692913567 2.527295840565261 77 58 52 0.58446755525807825 11 5717 49 3339 30 2545 9 2791
3406 -1.3018754080520465 1.2106952305514918 3.5754988302524988 72 50 39 0.50450890860806963 11 5490 49 3342 10 3143 31 3042 6 3192 5 2519
3407 -1.2496416536699702 2.1889168529378367 2.8145571027104568 82 68 62 0.38692985466474106 12 5442 49 3343 30 2552
