# 3D point list with one line of data per point:
#   POINT3D_ID, X, Y, Z, R, G, B, ERROR, TRACK[] as (IMAGE_ID, POINT2D_IDX)
# Number of points: 223, mean track length: 3.7623318385650224
1 1.1927789048664859 1.7262978866886378 14.703379309659649 100 78 67 1.3196051509625946 65 22 40 398
2 -1.6904323726561676 4.3005469201720734 12.91259912682019 54 63 72 0.7054187923348193 65 64 40 469 22 631 64 85 30 454
3 -1.6427215180858878 4.5428035521376744 12.852144980043814 135 129 117 0.8006908519221797 65 74 40 486 22 648 64 107
4 -2.2271842968163935 4.7247533884170458 13.174776141273684 134 137 130 0.40865576738830089 65 81 40 493 64 119
5 -2.3281680963265559 4.7480785464817341 13.212666874138993 142 148 119 0.18208873284009022 65 85 40 496 22 363 64 124 30 232
6 -2.8148769010182417 4.9771014887434832 13.487914421549002 79 77 79 0.37611040213205693 65 94 40 511 22 388
7 -1.8581567259591623 4.9208986335151712 13.094020773538142 131 127 108 0.2949707124937459 65 93 40 512 22 371
8 -2.8338927306373471 5.0511294841510699 13.520549737150562 152 139 136 0.086773234537089919 65 97 40 515 22 394
9 -2.5807966564877933 5.1097686905053763 13.415489298635539 69 74 67 0.041855896978947989 65 105 40 523 22 98
10 -2.0110443312236206 5.0916716725772817 13.19927111418013 55 65 74 0.23331945923243613 65 106 40 525 22 392
11 -3.0812092777388473 5.2543605617419411 13.668370703656892 75 75 85 0.50557607625108181 65 121 40 528 22 411
12 -1.5491678663118154 5.1475121520754357 13.120212169785608 123 126 109 0.50119245714074245 65 114 40 532 22 390
13 -2.5437457006944006 5.2308664809632326 13.452654378966114 69 60 77 0.15716445549137692 65 118 40 533 22 407 64 148
14 -2.5686097278581101 5.3330002369507996 13.509997190317522 81 77 76 0.20099226297956499 65 127 40 536 22 414 64 151 31 278
15 -2.6559213381498936 5.3940573000811591 13.57386235247378 136 136 124 0.16518353771181296 65 132 40 540 22 419
16 -1.3874184906801257 5.3272913851910024 13.124928024259781 123 122 118 0.26290587323042269 65 129 40 546 22 672 64 162
17 -2.4386991443838393 5.4469286732323692 13.496331117916895 99 79 72 0.15604538102154211 65 137 40 549 22 420
18 -1.5441978665246805 5.4512747651079909 13.194860091232439 52 60 53 0.23882600081566072 65 142 40 556 22 413
19 -1.4851496356557026 5.4810862537691518 13.219060348818736 114 126 124 0.15022988447820018 65 145 40 560 22 417 64 171
20 -2.5175199644148272 5.6192962291581452 13.587490260962031 85 78 57 0.12972764332391246 65 154 40 564 22 436 64 169
21 -2.5189822306324277 5.7212238016432151 13.634645846660698 138 131 123 0.16405154579249245 65 161 40 567 22 450 64 176
22 -1.7479478651609357 5.6455400157703783 13.34206962054526 56 62 52 0.15289052156989236 65 157 40 568 22 432 64 178
23 -1.6469054149830207 5.6711783248666876 13.309300744725395 54 56 68 0.092182581245873377 65 160 40 571 22 435 64 179
24 -1.7128717677008556 5.7100827515095602 13.358107945294085 117 123 96 0.24406744715235801 65 165 40 574 22 444 64 180 30 263
25 -2.0394201656534752 5.880184311300475 13.535891089187542 70 65 46 0.10735203966351453 65 171 40 577 22 457
26 -2.8754463340849581 6.1153582023004889 13.91579566685164 106 98 82 0.2431545659793275 65 181 40 584 22 167
27 -1.3098178398266185 5.9927128576819229 13.342417600261301 110 118 113 0.39778025140633338 65 177 40 586 22 695 64 342 30 268 31 531
28 -1.3098178398266185 5.9927128576819229 13.342417600261301 110 118 113 0.39778025140633338 65 178 40 587 22 694 64 343 30 269 31 530
29 -0.15300179241844886 1.8568422010607841 13.66784037210048 94 72 67 0.42513636197862875 65 26 40 667 64 382
30 -1.7458743601046645 4.3447581430927 12.917131265042594 131 128 90 0.23619301645093377 65 68 40 707 64 294 30 219 31 236
31 -1.5518680020435209 4.3263558416084003 12.754752783212394 49 62 90 0.67565912295423181 65 289 40 709 22 637
32 -1.7512922758152376 4.4313115132002228 12.937338355720962 59 67 105 0.29978791674515032 65 293 40 712 22 339 64 295 30 221 31 243
33 -1.7729202300659415 4.5942413454152611 12.978074211522488 135 124 84 0.3094920181444904 65 302 40 719 64 407
34 -1.9772506490439996 4.8590232091487122 13.115606291800814 126 125 104 0.4497413920570858 65 89 40 727 22 369
35 -2.2852034727164923 5.0819061449261884 13.307924132571259 146 124 103 0.24437416966490569 65 321 40 729 22 667
36 -1.6726059734996208 5.0327904776195638 13.086757339642569 56 62 67 0.33284971787777523 65 320 40 730 22 663 64 145
37 -2.5234518123616803 5.1378000185989192 13.411705072378766 133 136 119 0.1396039118980586 65 111 40 731 22 398 64 144
38 -1.7222300892123696 5.1419642386638182 13.239483514203954 129 120 103 1.1622484800921489 65 322 40 733 22 839
39 -1.4840119576917052 5.1190774462807394 13.067743833909701 56 55 64 0.11864632076490132 65 108 40 735 22 387
40 -2.6106138396892993 5.2559756672551243 13.502947061145779 144 141 110 0.21812388659195747 65 122 40 736 22 410 30 241
41 -0.41690906213461149 5.9968499044694399 15.345190819345648 54 39 34 0.39312623998064189 65 432 40 737
42 -1.8011556046451882 5.3051517327396667 13.217572480686117 133 122 96 0.14107134587134709 65 326 40 744 22 678 64 328
43 -3.039721294703714 5.4949210181211807 13.73287865138361 138 133 115 0.25464257906387749 65 328 40 745 22 686 30 486
44 -1.8909516632535235 5.4756360011957828 13.328016411887022 54 64 80 0.42548519176799449 65 143 40 749 64 166 30 254 31 294
45 -2.6520345408787209 5.7720635983798854 13.693119684871489 138 135 127 0.22293423037112939 65 167 40 755 22 692 64 177 30 265
46 -2.5600148752135259 5.8945719558153762 13.687673949520427 119 123 128 0.21946000899656273 65 170 40 761 22 463 31 309
47 -2.5600148752135259 5.8945719558153762 13.687673949520427 119 123 128 0.21946000899656273 65 169 40 762 22 464 31 310
48 -2.1098988879015153 5.9413158279481815 13.557771267074726 124 124 126 0.20944776649559518 65 341 40 767 22 462 64 188
49 -2.0697273593073127 6.0938825195460007 13.604599388814709 128 126 110 0.15001189175921475 65 346 40 771 22 472 30 273 31 324
50 -1.490545996796854 6.2778217253663717 13.507076993263555 121 117 84 0.41670335480568799 65 351 40 777 22 478 30 278 31 330
51 -2.1860653410621982 6.3604577161705222 13.740273288562191 125 120 106 0.13429240379088364 65 446 40 778 22 698 64 347
52 -2.2217171139101906 6.5400615342286095 13.808686462707476 121 123 112 0.2065954987211388 65 353 40 782 22 700
53 -1.6619733999042756 6.5115027633259537 13.671646846577907 117 120 99 0.09266288677488764 65 204 40 783 30 285
54 1.0707580189504586 1.3721597022762884 14.635925731248921 101 84 80 0.58896313860674931 65 18 40 822 22 562
55 -0.48880466483348822 1.8043776922820709 13.845542155361963 135 125 126 0.59957598401601131 65 250 40 828 64 381
56 -0.577169290429977 1.9355515917786339 13.736332469467687 134 115 117 0.79291070181554646 65 393 40 832 64 477
57 -0.11086827454850712 3.4274912900196295 13.69192840223681 85 64 45 0.8686801874459652 65 267 40 877 30 431
58 -1.3262449034313151 4.1248841591275003 12.758234636996782 100 108 80 0.22258203858799627 65 281 40 898 64 395 31 626
59 -1.3285463802652107 4.1287446461601975 12.767731145756928 100 108 80 0.24774734283212685 65 280 40 899 22 815 64 394 31 625
60 -1.5492325489379399 4.3286454003930031 12.767600628037263 47 61 107 0.56593455998495479 65 288 40 913 22 636
61 -1.6493470286085352 4.4918686426260139 12.931564919177454 57 65 79 0.28555047292978286 65 298 40 918 64 299 30 223
62 -1.6474701260635962 4.4890942317116664 12.922764754388032 57 65 79 0.26508891174379567 65 297 40 919 22 646 64 300 30 224
63 -1.8614980362395075 4.5541219962814816 13.007495359098215 50 69 104 0.30255446443677914 65 299 40 920 22 825 64 402 30 466
64 -1.8614980362395075 4.5541219962814816 13.007495359098215 50 69 104 0.30255446443677914 65 300 40 921 22 826 64 403 30 467
65 -1.6812808589974835 4.6458416090784613 12.965903711499619 51 63 79 0.16522039311132075 65 307 40 928 22 654 64 305
66 -1.4894222618145525 4.9516179906761186 13.025704700604706 124 119 91 0.18725966206159053 65 417 40 940 22 835 64 412 30 477
67 -2.7471189425977305 5.1798831375339054 13.54724931482726 145 135 108 0.17557369646795279 65 422 40 943 22 676 64 415
68 -3.0211355517032041 5.3049614052202383 13.679281088622401 134 135 106 0.19161417429274052 65 425 40 947 22 848 64 416
69 -2.389169752117188 5.2880682620157478 13.430659938863412 60 69 86 0.28567528073305093 65 424 40 948 22 846 31 640
70 -2.6610080678666046 5.4795395700045244 13.585102480608439 62 71 90 0.2925112879644044 65 427 40 951 22 853 64 329
71 -2.517873372257116 5.4999248944297765 13.545225618167402 140 136 88 0.38173138369328391 65 428 40 954 30 488
72 -1.3939484381231937 5.5795848198581934 13.215972218862314 119 115 87 0.20665111515756657 65 431 40 965 64 335 22 684 31 515
73 -2.4891872589526676 5.8093668376863281 13.640080749697157 53 72 90 0.18051168270811771 65 434 40 969 22 855 64 424 30 497 31 511
74 -1.5837553271466853 5.776994834022732 13.356759865421964 124 115 84 0.14814245082408189 65 336 40 971 22 690 64 337
75 -1.8419472483304156 5.9261564019781776 13.456349369446704 51 65 71 0.16364168876682464 65 437 40 972 64 340
76 -1.8445158567336395 5.9287750721099544 13.468662181167872 51 65 71 0.51062567616910648 65 436 40 973 22 856 64 339 30 266 31 321
77 -2.1930776248415831 5.9856163496968735 13.615382842230954 59 64 96 0.67009082638860518 65 439 40 974 22 859 64 425 30 499 31 315
78 -1.4834788749363041 6.0582332339906939 13.421001647724191 116 117 77 0.12342861041703194 65 441 40 979 22 858 64 428 30 645
79 1.002722698354523 1.5090553989965529 14.357766342674042 111 92 86 0.42802379649797095 65 387 40 1063 64 562
81 -1.4501993103766082 4.1762346151883731 12.811000728440959 45 58 100 0.34726968371284039 65 406 40 1088 22 818 64 396 30 618
82 -1.5990756990672357 4.2627674140075875 12.850824326202511 134 116 78 0.219284002950764 65 489 40 1089 22 968 64 499 30 620 31 627
83 -1.8341638242139946 4.7181475570067262 13.040359497539034 53 71 93 0.43707071374721712 65 497 40 1092 22 971 64 507 30 626 31 633
84 -2.6407782311390164 4.8361033027993852 13.393223526108754 54 79 119 0.37314985546496499 65 414 40 1094 22 834 64 408
85 -2.0957142232965569 4.9639387075301782 13.196706901412279 145 127 91 0.24219825745215107 65 501 40 1096 22 974 64 509
86 -2.2222537397104505 4.9915036485825794 13.257156684146345 53 74 93 0.41500372469634994 65 419 40 1097 22 838 64 411 30 631
87 -1.9566681480602615 4.971213267114635 13.13535125269277 46 67 99 0.27269234456568431 65 502 40 1098 22 975 64 510 30 983 31 790
88 -2.4195754480699185 5.0850872088947572 13.363115815297993 52 74 112 0.2299052317255782 65 503 40 1099 22 979 64 513
89 -1.8575157323611227 5.0978111039575502 13.202703268922926 136 121 88 0.26939257444217024 65 504 40 1102 22 978 30 634
90 -1.8580257846187882 5.0969983755842172 13.197944978429557 136 121 88 0.27545927654549862 65 505 40 1103 22 977 64 516 30 633
91 -1.7869057057588829 5.2127022202151867 13.209750066330558 43 55 97 0.27937463434896642 65 508 40 1104 64 417
92 -2.5292443177350781 5.4238337017597447 13.551285359440495 149 130 72 0.54502080916836504 65 513 40 1106 22 985 64 519 31 506
93 0.7209395860172757 1.7193555851989475 14.019094608034827 103 75 71 0.60142917192549705 65 476 40 1137 64 567
94 -1.4258229351066889 4.3762077327578437 12.851741747226914 38 57 86 0.38295780343697866 65 493 40 1158 22 969 64 504 30 969 31 783
95 -2.9131057287808066 5.5291743862848133 13.712295076911676 50 78 117 0.39453739773709601 65 585 40 1166 22 1106 64 590 30 1282 31 791
96 -1.7193317524203118 5.4272895266510188 13.247262411985769 48 70 106 0.1575262146248011 65 514 40 1167 22 982 64 523 30 996
97 -2.7898119490942785 5.7474382882312618 13.706330826097767 58 74 110 1.3681082459458938 65 520 40 1168 22 1047 64 525 30 1011 31 644 31 646
98 -2.6860810909675248 5.9124747372456499 13.742660383285713 59 70 109 0.49867385203209647 65 587 40 1170 22 1049 64 595 30 1012
99 -2.5290558690549196 6.1064343513859622 13.759152346781351 52 71 100 0.4509416202373282 65 589 40 1171 22 1052 64 599 30 1023 31 805
100 -2.3462793014286385 6.1945061134425501 13.732555010216377 42 68 100 0.66907863278812962 65 590 40 1173 22 1055
101 -2.1630806133759775 6.2191804210101402 13.68506323927798 47 67 103 0.27720751944240568 65 591 40 1176 22 1057 64 600 30 1035
102 -1.9630344222536356 6.2025562768032136 13.580703413293739 39 62 103 0.50529004899248942 65 592 40 1177 22 992 64 532 30 1036
103 -1.9728315533062557 6.2221229275146293 13.624622154839757 39 62 103 0.26114342658635215 65 593 40 1178 64 533 30 1037
104 -1.4814029608649473 6.4974000087746218 13.58500117773006 115 110 72 0.33499934777122281 65 594 40 1179 64 538
105 -1.4814029608649473 6.4974000087746218 13.58500117773006 115 110 72 0.33499934777122281 65 595 40 1180 64 539
106 -1.4837410100407469 7.0458097971055889 13.974089460990838 31 52 89 0.11756525205238261 65 448 40 1182
107 0.058120980370354847 1.8667762991737809 13.74585007808416 127 104 103 0.28671964318631943 65 563 40 1197 64 621
108 -1.3866520389990651 4.5727546699284511 12.888321898867169 130 112 59 0.40713569965073398 65 623 40 1232 22 1099 64 633 30 1269 31 944
109 -2.4785127480313576 4.844343164380656 13.302441681039982 52 75 102 0.17782420091642187 65 579 40 1236 64 586 30 1272 31 942
110 -1.3720613099101873 5.1897506574787435 13.074138668228343 110 97 62 0.39570938199235095 65 627 40 1239 22 1103 64 638 30 1274 31 948
111 -1.5239522878619804 5.3140698805019504 13.144401322271801 32 57 97 0.15850723500323446 65 582 40 1243 22 1043 64 592 30 1278
112 -1.7108701589046795 6.1273881940991384 13.49620425186176 33 62 103 0.38475641984670839 65 632 40 1249 22 1050 64 601 30 1031 31 957
113 -1.7108701589046795 6.1273881940991384 13.49620425186176 33 62 103 0.38475641984670839 65 633 40 1250 22 1051 64 602 30 1032 31 956
114 -2.5587786410946194 6.3807462070797154 13.875636118423488 139 123 90 0.17438065370439282 65 634 40 1253 30 1287
115 -1.4898817610683288 5.625697356807982 13.245785619398895 133 113 71 0.17839422170489666 65 651 40 1303 22 1134 30 1345 31 1004
116 -2.3647574817609578 5.926000134461038 13.654442699862287 138 116 78 0.33856881818542389 65 630 40 1304 30 1346
117 1.2013121360958232 1.063743133773714 14.97780681939842 170 167 162 1.2747874512266186 65 672 40 1331 64 669
119 -2.4065714047946072 6.2915449625844886 13.804598114984117 53 69 82 0.12229631821819913 40 774 65 349 64 346
120 -2.4054063729635282 6.2877400559699295 13.792320308106566 53 69 82 0.16051327141933072 40 773 65 350 64 345 30 277
121 -1.3789848054741278 4.4721873763162421 12.821373036056158 84 77 35 0.19992683937769481 65 296 22 64 64 302
122 -1.808652040087726 4.6776025945311952 13.025465229643858 43 35 33 0.26592198739484441 65 80 22 70 64 120
123 -1.808652040087726 4.6776025945311952 13.025465229643858 43 35 33 0.26592198739484441 65 79 22 71 64 121
124 -1.3058845756852857 4.5572765853728221 12.878044671634688 92 72 48 0.20248314349933938 65 73 22 341 64 109
125 -2.1311836919067164 4.5803197752800084 13.103985103825535 55 44 32 0.20617778653581473 40 485 22 350 64 103
126 -1.8439204378981158 4.6231550356346807 12.998916982482468 86 74 62 0.19872654341039678 65 75 22 351 64 111
127 -2.3511617271357665 4.6892122472488182 13.23235383100492 55 36 30 0.15158639859903078 40 721 22 358 64 304
128 -1.531784871920564 4.8731698575487066 12.990781465138147 49 36 30 0.17071033709306163 65 90 22 368 64 136
129 -2.6137609982604011 4.916273533548754 13.384535759594915 90 80 71 0.072357805257452223 40 504 22 376 64 133
130 -1.4835716027734649 5.1194238792252778 13.068801873794643 44 33 29 0.11253224540936074 40 734 22 386 64 326 65 107
131 -1.2758214281354425 5.2510233776783304 13.07605742873726 79 74 66 0.10508938139665909 65 124 22 396 64 157
132 -1.2758214281354425 5.2510233776783304 13.07605742873726 79 74 66 0.10508938139665909 65 123 22 397 64 158
133 -1.4851378350763749 5.4747515880916486 13.19905341161582 76 73 66 0.22056966459222327 65 144 22 416 64 170 40 559 31 305
134 -1.387181109989444 5.6831117896050669 13.246588792167477 41 34 32 0.17453107656384662 65 162 22 434 64 183
135 -2.0595976718798408 5.8119081076244443 13.52674848816401 99 76 51 0.67546521803897286 40 759 65 168 22 452 64 184
136 -2.3502932940484866 6.0390528536608095 13.679673615825045 96 81 61 0.049766897187903857 40 581 22 469 64 189
137 -1.7253848191733772 6.427802530527714 13.610731758212046 40 31 35 0.21859048389003127 65 201 22 483 30 283 31 334
138 -1.5195524295552962 4.1133755704072357 12.799249721000603 77 71 58 0.2343881201974686 65 279 22 620 64 75
139 -1.5195524295552962 4.1133755704072357 12.799249721000603 77 71 58 0.2343881201974686 65 278 22 621 64 76
143 -1.4691706847053254 4.2613205609452152 12.805599628797538 86 73 54 0.35291781249642423 65 285 22 626 64 292
144 -1.2156128528007581 4.3878784557320101 12.790847859647863 82 74 53 0.19051837612413028 65 69 22 633 64 93
145 -1.5733031992783897 4.420180370227631 12.86413128715715 96 79 52 0.55785191227826958 40 714 22 643 64 297 31 246
146 -2.1759515352823509 4.7758203824113403 13.167659318395511 58 39 32 0.24054339762583127 40 723 22 658 64 307 30 233 31 258
147 -2.7361636287188653 4.8993988245813451 13.423992581928923 100 88 77 0.20207249690442525 40 725 65 316 22 660 64 310 31 256
148 -1.3874184906801257 5.3272913851910042 13.124928024259784 83 80 75 0.26290587323043785 65 130 22 673 64 161 40 545
149 -2.7955197846215234 5.4126220018467341 13.644492469431011 102 82 56 0.53548513408801091 65 327 22 683 30 246
150 -2.0056036523374172 5.6096444334197333 13.40033164079021 96 74 52 0.19196791936717403 40 752 22 687 64 334
151 -1.6010388154643942 6.2003631465178213 13.51155649386461 87 75 68 0.38137024892679772 40 775 22 696 64 192 30 274
152 -1.5873163098846725 6.5389504405054035 13.620698257605408 42 35 41 0.4774356221751016 65 206 22 699 30 509 40 997
153 -1.6559571877502544 3.9627041571228894 12.807786840032968 82 77 70 0.41201677565822797 40 896 22 812 64 392 30 450 31 621
155 -1.3345720594706947 4.7149880542297868 12.923015947840689 90 75 68 0.3277267706363709 65 311 22 829 64 308 40 497
156 -1.3368346547352086 4.7124829221468154 12.920999653360965 90 75 68 0.29817106683903694 65 312 22 830 64 309
157 -2.5373857596886631 5.0263833765873152 13.390490183577006 95 78 62 0.24070230878598484 65 420 22 840 30 481
158 -1.8812836191877675 5.5502016329334776 13.330551419482935 51 37 30 0.32352663972013623 40 960 22 850 64 333 30 492
159 -2.6595753651260305 5.4822635588645854 13.594532054893207 43 39 34 0.26086970850296359 65 426 22 852 64 330
160 -1.3397764192706272 6.1697881740462233 13.47690414718665 86 78 60 0.3853396823468041 40 1112 65 445 22 862 30 648
161 -2.7740449855706895 6.0378342961277331 13.832646161287773 90 74 46 0.13914667973909101 65 440 22 863 64 338
162 -1.7854478112069176 4.1794606743973315 12.88007420027226 39 37 51 0.35674460600184316 40 1157 22 966 64 496 30 965
163 -1.4298065034452634 4.3687683350054165 12.820731361978083 33 34 49 0.30533053548745059 65 494 22 970 64 505
164 -1.9017449580642509 5.7663076866496041 13.453834547837408 98 71 42 0.4169469728212164 65 523 22 990 30 1009 64 594
165 -1.7260131384856341 6.3209240015236103 13.578507850732615 88 71 54 0.80959989174149904 65 529 22 993 64 435 30 505
166 -2.4752880931202821 4.8389596103128127 13.290022901293788 31 46 62 0.08245012588640542 40 1237 22 1042 64 587 30 1271
167 -2.8749179248875683 5.1985698637708166 13.573696419994807 39 49 58 0.35501570766056911 40 1164 22 1045 64 589 65 581 31 787
168 -1.5127552696387647 5.8801645483985814 13.374833289799891 24 39 61 0.84034312309951653 65 629 22 1046 64 596 40 1110 30 1013
169 -2.3499159592742944 6.1811088349310017 13.697647587371947 35 42 60 0.49038926057907067 40 1174 22 1054 30 1034 31 653
170 -1.9754285765387833 4.2759530609230314 12.984006317014995 109 77 37 0.096453759907124056 40 1228 22 1097 30 1267
171 -1.9760420223320736 4.2730269628482569 12.977584646615771 109 77 37 0.16067681304644899 40 1227 22 1098 30 1266 31 936
172 -2.0786058914765952 6.4221168827936239 13.683372432045466 81 62 39 1.0028589447261251 65 656 22 1107 64 641 30 1291
173 -1.2765469626953272 4.2797332968537889 12.794524795575796 90 70 37 0.48773084413606577 40 1298 22 1131 64 658 65 648 30 1339 31 998
174 -1.6747651330802982 4.1455088471614463 12.811255210263562 89 77 59 0.56376562712200229 65 282 22 623 64 285
175 0.69134530883878587 -1.5696552941720108 18.435205340895255 135 117 108 1.5275258306044774 40 1422 22 1218
176 0.57593816455059599 5.1762957351571393 15.682973542450743 58 41 33 1.5054153559133903 22 57 65 87 64 72
177 -2.0657131425915867 4.5362769816851847 13.038720739120127 142 146 149 0.19023004643397354 22 650 40 481 64 101
178 -2.5729252629865655 4.6883710032793742 13.357397073178982 71 72 77 0.4059226886247731 22 356 40 489 64 104
179 -2.4280231638593359 4.7052018488566434 13.246046036599642 154 154 130 0.18737462051907375 40 490 64 112 30 229 31 248
180 -0.075705710104171819 6.1951743941826578 16.46186152107116 9 5 2 0.64469942681329129 65 152 64 122 31 238
181 0.18997053085853977 6.2240021485163854 16.47950919054227 12 6 4 0.76776276821745504 65 156 64 127 30 207 31 241
182 -2.3535909021267902 4.9891307700683658 13.30715014465429 137 143 143 0.22399867128857973 40 516 65 319 64 137
183 -1.8886629194575728 5.4657746710957031 13.310355348297962 65 60 64 0.41045824971482803 40 748 64 165 30 253 31 293
184 -3.2067163326363897 5.7372253787177874 13.922096510767876 150 160 151 0.11804673551173595 22 456 65 159 64 168
185 -1.387181109989444 5.6831117896050678 13.246588792167479 50 54 55 0.17453107656385972 22 433 65 163 64 182
186 -1.4336413637960703 5.7520945220765851 13.301091923582097 126 131 127 0.088939224887264287 22 438 40 576 64 185
187 -1.4336413637960703 5.7520945220765851 13.301091923582097 126 131 127 0.088939224887264287 22 439 40 575 64 186
188 -2.6055455866464841 6.477295748883745 13.919541950462525 148 157 160 0.27171502425549687 22 491 65 199 64 195
189 -0.92873283318453725 3.101041147271804 12.445853374886848 164 175 186 1.0795187813956029 65 264 64 274
190 0.66790694180567878 5.2645972521665128 15.902839743586124 41 28 18 0.96876465719409788 40 706 65 315 64 282
191 -2.105596177925392 4.3118867571028288 13.01500084065046 146 156 159 0.28412877385571511 22 641 64 290 30 216 40 468
192 -1.7491111539035775 4.4327238154103599 12.938832521436009 73 62 62 0.22778786013185143 40 713 64 296 30 222 31 242
193 -2.7355992529329614 4.9013786342306247 13.42730174693342 156 139 119 0.21679890783365077 22 661 64 311 31 255 30 236
194 -2.2651636973873885 4.950371636729078 13.26643761048649 64 63 79 0.32791212836062633 40 937 64 314 30 476 31 268
195 -2.1328781443093634 6.0511007554326648 13.612706568993351 53 66 70 0.15555631584398524 40 770 64 341 31 319
196 -0.48783368571238545 1.8765830350054091 13.739823972271413 97 81 81 0.20996199144451896 65 252 64 383
198 -1.2432834744306756 4.4877639964083382 12.840032052238511 54 58 61 0.082046916526988048 22 644 65 413 64 401
199 -3.0600271268117436 5.6673756659822079 13.85454361999582 145 140 120 0.86686524463877213 22 989 64 419 30 1000
200 -1.418354238467429 5.4967693893874143 13.249444678217369 49 62 81 0.31253588785646369 65 329 64 420 30 639
201 -2.9541938374285381 5.7949560329881855 13.817301307434834 101 115 110 0.54347587653844043 65 522 64 421 30 642 31 509
202 -2.4264441638452565 6.079988732631624 13.693105083466147 59 64 116 0.25115627580838867 22 991 64 426 30 647
203 -1.4831894644236363 6.0587090952804141 13.41789908052591 123 122 100 0.12592569205569273 40 980 64 429 31 529
204 -1.0684058908299086 2.2682793692190102 13.534330626431142 8 10 9 0.2000257859504872 65 481 64 480
205 -1.6098003236290626 4.0907549647153791 12.860146611631828 48 76 90 0.56819337102372358 22 816 64 495 31 777
206 -1.958314972481789 4.9791880956184782 13.15950325548077 64 70 95 0.041636487926941856 22 976 64 511 30 984
207 -2.514433381654043 5.3979804435668637 13.502465107741456 153 142 96 0.24074273465847837 40 1105 64 518 31 505
208 0.64009510243953838 5.1252060481765804 16.117353704005588 75 62 52 0.39758187057346245 65 578 64 583 30 949
209 -1.5250838375028741 5.3152006858052099 13.149318908800684 37 61 89 0.12629247374443628 40 1242 64 593 30 1277
210 -2.7058305348200586 6.1498172220754386 13.817594260018357 142 127 97 0.3935623673302231 22 1056 64 598 30 1029
211 -2.3092882935494101 6.3476362889503246 13.729934487414338 131 119 106 0.46653572101813912 22 1059 64 603 30 1045 31 656
212 -2.3072157350841511 6.3613076856725312 13.748532448940384 131 119 106 0.37797173190303313 22 1060 64 604 30 1044
213 -0.019322528755685298 6.7292920294743492 16.565055928235587 11 11 11 1.4719613756956715 65 588 64 637 31 1053
214 2.9689550613061013 9.6011186269651478 18.732788236137548 108 96 80 1.4029959151145164 65 705 64 724
215 2.9689550613061013 9.6011186269651478 18.732788236137548 108 96 80 1.4029959151145164 65 706 64 725
216 0.31206601454043925 -0.63007221442601158 14.620338796631113 141 126 114 0.97335467316078117 65 716 64 737
217 -1.2118263035984955 4.2247146715660033 12.756189970842501 49 45 39 0.18900173231027675 22 819 65 407 40 907 22 624 64 397
218 -1.2118263035984951 4.2247146715660033 12.756189970842499 83 74 66 0.18900173231027032 40 908 22 625 64 398 65 408 22 820
219 -1.167097218173498 2.0968583422335834 13.701164492183366 247 249 248 1.9576368472291692 65 565 64 573
220 -2.1105835545957055 4.3226208712449008 13.049107261771967 70 70 67 0.39659302171719474 40 467 30 217 31 231
221 -1.4943138915691181 4.5628431305042332 12.920216296060643 70 63 43 0.21540129207101497 22 647 30 225 31 254
222 -1.9776143779326718 6.0910257474794385 13.594966049324059 68 59 52 0.16009220115352318 22 470 40 977 30 272 31 524
223 -1.6665282053284858 4.7700493437005189 13.039259261403664 70 61 52 0.52022684874642044 64 409 65 498 30 627
224 -3.1676114728030953 5.2440238359353044 13.761113768995225 78 74 64 0.54235153181083684 22 847 40 1101 30 635
225 -1.7192123237991859 5.4453375921410725 13.273510834372249 14 29 32 0.18820637051368116 64 524 30 997 31 798
226 19.671679847770513 27.041364475797486 25.874067033759875 123 123 115 0.24406901814087284 22 901 30 1119
227 -1.3873034354817664 4.56398041695007 12.882044377064277 65 53 31 0.18559856674729991 40 1233 30 1268 31 943
228 -2.4648293893752706 4.6371145718980928 13.25615195488321 69 54 35 0.25253370782163304 22 1100 40 1230 30 1270
229 -1.3934200154551279 5.5731856537604987 13.207695384223218 45 41 36 0.08471927363869973 40 966 64 336 31 514
230 -0.2479656940354894 3.01548235728061 13.589269253118351 115 119 118 0.19160841199590964 30 419 31 766
