# 3D point list with one line of data per point:
#   POINT3D_ID, X, Y, Z, R, G, B, ERROR, TRACK[] as (IMAGE_ID, POINT2D_IDX)
# Number of points: 356, mean track length: 4.0505617977528088
1 -0.39094852544933145 -2.6546433026407845 6.1015272798190141 78 121 76 0.24115130576068522 87 29 105 38 88 326
2 -0.4148882614212257 -2.2898007179343316 6.5132055896462981 65 112 96 0.30880370544363156 87 73 105 114 88 374
3 -1.3920311877022362 -1.981674833355427 6.3288699374220663 55 90 86 1.934093417100063 105 172 88 540
4 -0.4042471252556552 -2.4628870274643417 6.150438193438573 73 119 82 0.2942935108703863 87 210 105 311 88 343
5 0.29749254098149724 -2.3417643627975333 6.5348803516987619 77 108 90 0.75877306650110399 87 215 105 327 88 361
6 -0.2917513187570156 -2.0932622024393046 6.3001788306205402 49 96 90 0.1771623972460549 87 103 105 349 88 394
7 -0.75871109177509899 -2.0236744655072934 6.4590491717905394 66 107 103 0.57621102828332516 87 120 105 354 88 538 104 126
8 -0.42744531830822097 -2.0100786895760647 6.3448588476450629 75 121 119 0.13238134226851803 87 113 105 356 88 534
10 0.065775103581899474 -1.8109374078306408 6.378377351954839 88 129 125 0.34427482944841109 87 255 105 377 106 410
11 -0.54388634625316812 -1.7479011075807374 6.4733079587511053 5 51 43 0.7259632044856833 87 263 105 380 88 435 104 329 37 730 17 174 16 90 110 661 15 174 68 65
12 -0.073372971431239803 -1.731467170242998 6.4447255742979932 80 125 122 0.5004578957659781 87 261 105 381 88 433 17 176 90 728 35 426
13 -0.045544757408290781 -1.7261220432335331 6.4620180387653576 80 125 122 0.27174484184851749 87 139 105 382 37 734
14 -0.27310576717953899 -1.7120339523653076 6.4514284096045831 15 49 42 0.54148687560901532 87 143 105 383 88 438 37 733 17 337 90 616
15 -0.48386321752068079 -1.7027094143090797 6.4684694631166124 15 53 46 0.39932171108883097 87 269 105 385 104 165 37 584
16 -0.023672936950818266 -1.6989055044211183 6.456403711044147 2 34 24 0.36499578824831325 87 267 105 387 88 627 104 336 35 267
17 0.1397841640859698 -1.5745058572594905 6.5309365354455045 81 126 122 1.2771560555788102 87 342 105 398 88 630 37 826 106 592 38 652 36 399 67 352 17 185 110 673 90 739 111 521 35 540
18 -0.029618385630518447 -1.4001127926882109 6.6397481232630406 12 54 46 0.9673150542975163 87 161 105 405 37 611 110 681 15 105
19 -0.098481848662579974 -1.3351518434035896 6.7077060124999663 6 41 29 0.51799307746843604 87 164 105 410 88 574 104 487 37 745 106 527 38 659 36 192 17 352 16 110 110 683 110 762 15 107 111 413 35 11
20 -0.1578477072987792 -1.1223027694249297 7.1138618183028788 0 4 3 1.4290472413232134 87 349 105 419 37 837
21 -0.65198445232693347 -1.0513161685272554 6.8984747531198192 88 127 129 0.44293960846536823 87 297 105 422 104 192
22 -0.97404624944800677 -2.7412073044776077 6.905526811591062 86 132 130 0.94744722860744168 87 307 105 441 88 503
23 0.031139647030260887 -2.2554138805666968 6.347623422268601 55 91 77 0.99354034921195378 87 219 105 460 88 508 106 482
24 0.050319867511492894 -2.24504991771088 6.3977631597479938 13 51 38 0.37732484220017948 87 222 105 462 88 603 17 283 90 705
25 0.050864223276952961 -2.2426846960184772 6.3920067229541608 13 51 38 0.74592765080043644 87 223 105 463 38 598 16 158
26 0.019862393182756337 -2.1261187409735096 6.3288383030248045 40 85 80 0.20336462616728798 87 96 105 471 104 439
27 -0.70971218893546106 -2.0679832801689235 6.530702893022994 69 113 108 0.39184754431443225 87 238 105 481 88 410
28 -0.73361948847774971 -2.0328747911119529 6.4887490196447759 28 69 63 0.29033901877365348 87 243 105 483 104 445
30 -0.10002443294958704 -1.7159585977231884 6.4512140146581194 4 44 37 0.66781884528032553 87 265 105 503 88 673 37 821 106 628 38 759 67 256 17 336 90 730 111 519
32 0.20354791516222268 -1.6037260601099332 6.5193657644883078 14 53 48 0.53545852335158506 87 271 105 509 88 564 104 477 37 598 38 650 36 200 67 136 17 346 16 102 110 550 90 385 111 312 35 252
33 -0.23835672737071212 -3.3453602782186387 6.2103136249633266 38 68 42 1.390235768508689 87 357 105 522 67 294 68 203 86 120
34 0.016943406673543208 -3.0018066854482321 6.137336082944354 33 67 32 1.4998977371318925 87 300 105 523 88 483
35 -0.28130625469389736 -2.2412481050424908 6.4180276792351245 77 121 106 1.3508593583678448 87 227 105 549 88 513 104 533 37 695 17 384
36 -0.48676249078499556 -2.2105513214234391 6.4447418806037273 29 75 65 0.24439326857324994 87 233 105 552
37 0.022939992536021681 -1.4341147758163924 6.6373412316291862 78 128 129 0.75077215004527909 87 384 105 584 88 568 104 351 37 608 67 267 17 191 17 452
38 -0.2001259062232302 -3.3561713725787476 6.1572778040362648 186 184 170 1.3570723972276166 87 399 105 596 88 647 86 143 67 424
39 -0.29298887015006281 -2.5086789400557468 6.2078692480473903 39 79 49 1.8844460409660055 87 362 105 605 88 656 104 638 86 30 68 24
40 0.11136010797298447 -2.2623613297812302 6.4183989235852188 21 54 37 0.91093952215740925 87 317 105 616 88 602 106 485
41 -0.78430537890965435 -2.0755478085626691 6.3758001059714706 62 107 104 0.13276314621434637 87 412 105 619 104 540
42 -0.58336472564139952 -1.3203760292740561 6.8393699349306951 57 108 111 1.5668256734025345 87 387 105 632 104 571 90 396
43 -1.3874898525551618 -1.358111793211175 7.143146420109332 161 168 170 1.5571208807631547 87 388 106 600 86 135 67 419
44 0.16967875915198863 -1.078305201539635 7.1230931287380113 1 5 5 1.1986544737861167 87 395 105 636 88 642 104 579 37 839 38 726 36 283
45 0.12585669049774084 -2.903197873461135 6.1541220739005711 36 67 36 1.0450967655018504 87 360 105 639 88 651 68 158
46 -0.41703215590603038 -1.9920576659574369 6.4593624369530529 121 160 165 0.59531590812373369 87 426 105 654 88 711
47 0.20067855527473616 -1.1063757277429536 7.1649242952208381 174 203 202 1.0680417230953141 87 429 105 655 104 647 16 330 86 138 110 875
48 -0.41220196747424925 -2.5878721630036972 6.2500723907860163 72 114 74 0.70428674238759459 87 401 105 658 88 684
49 -1.3632694320896441 -2.4359745735888554 6.7758182193308523 42 66 50 2.0676514821666654 87 406 105 660 88 660 104 655 36 491
50 -0.88630098333292684 -1.2288155394572919 7.0790050313656163 6 6 5 1.1021159490873345 87 441 105 669 88 716
51 -0.88961362880263439 -1.2283259285042656 7.1060807853991772 6 6 5 1.3237156019460523 87 442 105 670
52 -0.76672565632518275 -1.0761586434392616 6.9653813859784872 112 132 134 0.5074756030506129 87 430 37 914 36 397 104 648
53 -0.18672270439205824 -2.5839376829046903 6.1276331463412044 175 212 194 0.45385333004438028 87 432 105 673 88 722
54 -0.1853563366005333 -2.5880429922610175 6.1416332264593825 175 212 194 0.61115291649064662 87 431 105 674 88 723 86 123
55 0.53081585721308489 -2.5834849710802064 6.8894389983686031 185 184 166 1.8145787295986839 87 443 105 675 88 732 37 955 106 688 86 168 36 515 68 275
56 -1.1709765498488638 -2.3816032617834701 6.6465078500280299 55 91 87 1.1004592940425895 87 424 105 677 88 700
57 -1.2095146396338332 -2.1471520606908596 6.4274442813642825 59 105 103 0.85059166521297735 87 411 105 680 104 672
58 0.46160472006648279 -1.8532328643516547 6.4251469747075491 67 104 97 0.78296081567634646 87 445 105 681 88 728 86 147
59 -0.26235418009788242 -1.7397863892430292 6.4259882752928252 27 63 51 1.0225112209698348 87 437 105 682 88 729 104 665 37 946 106 671 38 826 36 518 67 452 17 518 16 348 68 227 90 886 35 717
60 -0.63304354408955354 -1.10595245235943 6.8995945781156678 26 62 56 1.6804049312099583 87 446 105 685 88 730 104 668 86 162 36 476 17 511 68 270
61 0.16608461860401644 -1.640860408295054 6.5168517240910262 35 72 55 1.139654603433147 87 453 105 689 88 736 104 680 106 684 86 157 36 536 67 455 17 521 68 282 111 589 35 778
62 -0.83287079895648963 -2.8780017024976177 6.9145210505296335 191 191 181 1.3479097939894362 87 449 105 694 88 741 104 684 37 966 86 166 38 842 36 543
63 -0.32465821976346804 -2.6280210834411437 6.1348448800884512 42 81 50 0.9641595141952356 87 448 105 695 88 740 104 685 86 165
64 -0.33583018016791583 -1.627834920433737 6.5404069336067296 73 119 117 1.5377368295548073 87 455 105 700 88 747 87 460 37 970 106 697 86 173 67 473 68 281
65 -0.33286093096860853 -1.6252263332379859 6.5119961476818862 73 119 117 1.8351104073674995 87 454 105 701 88 748 87 461 37 971 106 696 86 172 38 852 67 474 16 376 38 847 15 402 68 280
67 0.23507933704807724 -2.2917409270731635 6.3581230680119054 29 61 40 1.407188354176425 87 465 105 711 88 751 86 174
68 0.20025952502535224 -2.0735963779290318 6.3594936273510179 73 114 108 1.217112410251173 87 459 105 712 104 697 86 175 38 838 110 880 68 290
69 -0.43928944720730945 -2.0456045290736316 6.4794421757896608 73 122 119 1.3546692388569301 87 469 105 713 86 177
70 -0.63008865356354871 -1.9278433252661888 6.5747357269090116 83 133 130 1.0072624816113449 87 467 105 714 88 759 86 179
71 -0.62538471255063499 -1.9105712454309913 6.4655619784735885 83 133 130 1.9297109575075364 87 466 105 715 88 760 86 178 17 536 111 603
72 -0.38621784856313374 -1.8045536984989086 6.4321084260066623 28 65 48 1.0992045801031471 87 468 105 718 88 761 86 180 17 538
73 -0.1010500438567184 -1.9819690995679098 6.3409882594777924 91 137 134 2.0055471873009525 87 470 105 721 88 762 106 706 86 186 17 548 16 406 111 621 90 923
74 0.23911892038704421 -1.8403560460128205 6.4255241488616015 28 62 45 1.4459975996905747 87 471 105 722 88 763 104 706 106 707 86 183 67 486 68 300 17 550
75 -0.49938823680649808 -1.1090839268597792 6.9632592995468787 77 127 128 1.785999114866168 87 476 105 724 104 716 86 188 17 553 68 304 90 926 111 626
76 -0.49654974123331713 -1.1116732773119402 6.9573530447942726 77 127 128 1.660239511011818 87 477 105 725 104 717 86 190 17 552 90 925 111 625
78 -1.3477720307288412 -1.4724552772091248 6.9878495681335115 69 118 122 1.4021195361267815 87 473 105 727 88 770 104 719 106 714
79 -1.3477720307288412 -1.4724552772091248 6.9878495681335115 69 118 122 1.4021195361267815 87 472 105 728 88 769 104 720 106 713
80 0.41170716907482641 -1.2702420540022106 6.9980659785911312 73 117 120 1.6132300519185703 87 479 88 776 87 480 104 721 106 718 86 193 36 576 68 307
81 -0.070479125666789794 -2.9417657030033966 6.2594719147027753 64 103 58 1.1768783535145078 87 482 105 732 88 777 111 629 86 195
82 -0.070479125666789794 -2.9417657030033966 6.2594719147027753 64 103 58 1.1768783535145078 87 483 105 733 88 778 111 628 86 194
83 0.28711067176833416 -1.7101371455917187 6.459966852161223 44 77 70 0.51020076806044723 105 215 88 256 104 166 37 347 106 288 36 25 35 29
84 -0.25212525242381034 -1.2910781489072658 6.7290513121529285 15 51 50 0.25507970921571893 105 239 88 270 37 371 110 568
85 0.22483829075782158 -1.039413223990614 7.1886517392511093 50 71 75 1.135156518522616 105 262 88 300 106 448 38 458
86 -0.30280315069770458 -0.98691488045092768 7.011276416817374 91 101 100 2.2171364472201693 87 356 88 303 86 118 38 728 17 415
87 -0.42883554270336643 -0.98154109110240928 7.0346320972667602 34 57 59 0.41797742970229385 87 197 88 304 104 369
88 -0.31797114269429633 -2.6024431120774585 6.3437432726359546 81 121 92 0.60711819767879915 105 51 88 333
89 0.33208393680251791 -1.7283443393310429 6.4612549766890925 16 52 52 1.4449688393947306 105 211 88 434 37 341
90 0.31327145539775603 -1.7116033937167465 6.4718808137720014 19 55 52 1.0647550983870793 105 384 88 436 104 335 106 289 36 131 35 28
91 -0.069961103085440582 -1.7107988172376041 6.4483785222575323 9 43 33 0.30946629747855148 87 141 88 437 36 204 17 177 90 356
92 -1.4299219195574731 -1.7941700257253996 6.6405144888127081 52 94 94 1.0321733066344794 105 500 88 439 104 467 37 724
93 0.28788859950204743 -1.687423813277531 6.4664346493849187 11 46 42 0.31868386687634703 105 390 88 440 37 591 35 26
94 -0.034202183045388579 -1.6862320967484477 6.5121674858207035 28 60 47 0.50057685511252015 105 391 88 441
95 0.10343225762717799 -1.6486437337203192 6.5966826709753086 58 105 95 1.3704037307251378 87 150 105 394 88 448 38 407
96 -0.16853152328888976 -1.2869968531432137 6.7310188262831705 0 28 21 0.40629909097638867 105 241 88 468 37 618 38 555 36 15 110 567
97 -0.34072603801856616 -1.2274263541319697 6.8512792288627598 64 106 104 0.37209251286128975 87 171 88 472 17 212 90 407
98 0.073986262255422708 -2.2334532746874092 6.4159403524592031 43 83 74 0.39272707639135679 87 76 88 512 17 285
99 -0.15622879019554564 -2.2144859361696785 6.3930672209988213 25 74 68 0.23651602334600227 105 337 88 514 17 290
100 0.22052082647089827 -1.9825255412725593 6.334147465030207 26 58 55 0.57076925799127032 87 237 88 535 104 323 38 346
102 -0.27609181044685921 -1.6905974707532763 6.4544960374580125 56 92 89 0.52166118608176248 105 389 88 561 37 737 106 418 36 205 17 179 90 352
103 -0.2094238675044412 -1.6162997029254813 6.5100885362288405 5 38 29 0.64667391938093854 105 395 88 563 17 184
104 -0.62814750346122472 -1.2888671217214789 6.8508627039702414 0 39 28 0.43882944701786469 87 289 88 576 16 123
105 -0.73829905250257644 -1.2270629930219383 6.9298593471713668 59 109 106 0.51344350694092122 87 175 88 581 37 750 15 127
106 -0.27385955123678679 -2.2681829584411619 6.607677309060481 6 52 41 0.45851352862017186 87 231 88 606 37 797
107 -0.87135885256244572 -1.9648869692164785 6.4055339632104573 26 65 62 1.1165196988017938 105 562 88 617 104 619 106 570 17 312
108 -0.20308887540787735 -1.7610505008105608 6.4282593242602912 58 98 97 1.1979768257833669 87 338 88 621 37 872 105 626 38 636 36 405 17 448 15 239 90 778 111 465
109 -0.024562612720882202 -1.6986248472414149 6.4593928708628976 0 27 17 0.36901128680691875 87 266 105 386 88 626 104 337 37 738 36 307 67 258 17 340 35 266
110 -0.31971363543648884 -1.5101583379162673 6.5734031790181113 6 43 40 0.55291804006477063 87 278 105 581 88 632 104 624 37 874 38 761 67 266 17 410 106 633 16 229 110 805 15 180 68 142 90 736
111 -0.29007636897162248 -3.0961379506118973 6.1734020040340898 22 57 27 0.99488072644602044 87 299 88 649 68 4
112 -0.21078828480755071 -2.2613607893453174 6.4316164889730336 47 92 86 0.76139255230819503 105 547 88 662 106 556 86 67 67 322 17 435 16 160 38 737 110 730 15 223 68 182 90 841
113 -0.40204131815783117 -1.6761397371001412 6.459300377621914 60 102 102 0.8831047389777128 105 574 88 675 104 562 37 823 38 643
114 -0.77207018454989329 -1.456724415222638 6.8249852068979449 28 73 73 0.50130069729925919 105 582 88 677 104 348
115 -1.4827227193450696 -1.4064727741484191 6.9310855769916184 177 181 180 1.3054177839379257 105 631 88 678 37 875
116 -0.59196535493084557 -1.0678322318838236 6.8727196312497725 66 105 104 0.93452633866573731 105 589 88 680 104 580
117 0.54695949824642454 -0.98871667391700357 7.1270993474507636 99 110 106 0.83771857796232008 105 592 88 681 104 582
118 0.065114703467669108 -2.9678566629108074 6.157307948826416 32 67 35 1.3420569195282701 87 400 88 682 86 54
119 -0.77939069751309498 -2.0387663050119866 6.4466327036961832 16 52 50 0.11959291755863875 105 560 88 688 104 444
120 0.13225511241477356 -1.9344317464015239 6.3098709765383196 0 30 20 0.44548668321235796 87 331 88 689 104 620 35 653
121 -0.56743514633962422 -1.3235827430349654 6.8183047806238433 45 91 89 0.56270303732022686 87 386 88 692 106 634 16 231
122 0.68762957077266273 -1.0753633046259776 7.2001764097669518 154 157 146 1.3538775038796893 87 418 88 695 106 607 67 441 86 140 17 482 16 331 110 814 68 273
123 -0.27233324344107102 -2.6227084076743803 6.2055330366850798 35 76 44 0.69765617993194173 105 657 88 696 104 637
124 0.34136938086989993 -2.5778644679409806 6.4154188593812789 75 105 70 1.3754766521103172 87 421 88 697 86 125 38 778
125 -0.47341773623855554 -2.1471506771311439 6.4087344426539214 61 110 106 0.31693225024793181 87 436 88 709
126 0.10003738427128185 -1.9220044250649797 6.316443942034943 16 44 32 0.54919733350367916 105 665 88 712 106 649
127 -0.60412805719739571 -1.2072588869323342 6.8375519351533693 54 83 86 0.86664906620369264 87 439 88 714 68 235
128 -0.60412805719739571 -1.2072588869323342 6.8375519351533693 54 83 86 0.86664906620369264 87 440 88 715 68 234
129 0.34663115911965203 -2.647714616869802 6.1597712326513259 25 55 29 0.58669978257429445 87 447 88 721 86 164
130 -0.67491291592128999 -2.4721601519373633 6.7703530186736733 193 194 186 1.8211493791536526 87 444 88 724 86 154 38 818
131 -0.27660040283048826 -2.3052752569496802 6.3959814870492879 10 48 25 0.70270009510155829 87 434 88 725 17 501 68 217
132 -0.077504587241234602 -1.6713356946901343 6.4630307233110269 22 56 39 0.87380069902134683 87 452 105 698 88 734 104 692 37 964 106 682 86 156 38 840 67 454 16 351 110 886 15 393 68 279 90 896 111 588
133 -0.078415383109161546 -1.673349552425426 6.466110637632549 22 56 39 0.8982604561725982 105 699 88 735 106 683 86 155 38 839 67 453 16 350 110 887 15 392 111 587 90 895
134 0.16659667451958768 -1.6349530900243503 6.5047786469052973 19 55 38 0.71774841199470218 105 690 88 737 104 681 86 158 106 685 67 456 17 520 111 590
136 -0.53158848651952073 -2.3778226969846186 6.6299598379687961 7 41 24 0.83357700247636102 87 457 88 745 86 169 38 835 106 678
139 -0.1556031569692588 -1.4811677664699172 6.6207085000682815 25 57 42 0.91226869637526353 105 719 88 765 37 983 106 709 86 184 16 408 110 922 15 430 68 302 111 624 90 918
140 -0.98159278678296313 -1.1173485631275972 6.9865474884429402 0 0 0 1.8842772383662041 87 474 88 766 104 715 37 987 38 866 36 573 35 798
141 0.41477379141566451 -1.2687454182910332 6.9944012872026491 52 89 87 1.9792980745220705 87 481 88 775 104 722 106 717 86 192 36 577 68 306 35 809
142 -0.91036715879331886 -1.2005340834856677 7.0533005954865766 3 0 0 0.9949347004405642 87 456 88 739 68 285 86 160
144 0.022886632688621865 -2.1805344062217573 6.3649822982286519 33 82 76 0.53958050603540841 88 384 105 138 104 293 17 119
145 0.74538902853116129 -1.7012887980807931 7.2291432533189752 82 109 102 0.30003684625676608 105 393 104 330
146 -0.55228136764534652 -1.7183399976779561 6.4834397523147089 80 132 128 0.70376357082238916 88 558 104 332 87 144 37 731 36 133 110 666 15 89
147 -0.28495542127170492 -1.3638683541001004 6.6749874921932735 10 50 42 0.28865722232292718 105 407 104 355 67 275
148 -0.10987432461107607 -1.3082945489869977 6.7234785259716867 76 118 114 0.62777154184535444 105 411 104 357 37 746 38 553 16 113 110 763 90 648
149 0.38196036671195521 -1.9904611278256146 6.4100635710271376 11 42 36 0.39841302786117722 105 488 104 455 17 398
150 -0.23824916894795675 -1.8090714446034295 6.3829830899522415 86 130 128 0.35634414157154709 87 136 105 568 104 469
152 -0.77746854592392567 -2.9737188516546138 6.900967512543648 12 13 8 1.4682667655034407 105 529 104 496 37 771
154 -0.85801245244643554 -1.2450461459549689 7.034813999119673 0 2 0 0.72511894808242827 105 588 104 574 86 48 68 148
155 -0.85801245244643554 -1.2450461459549689 7.034813999119673 0 2 0 0.72511894808242827 105 587 104 575 68 147 86 49
156 0.70309215198552966 -1.0992032632558579 7.2808550924694906 151 158 151 1.8760412121890495 88 641 104 577 36 282 35 646
157 -0.11908094420586339 -3.2613747367798003 6.2220593854231145 52 86 54 0.56275799021716633 87 358 105 597 104 584
158 0.17082206269493766 -1.5914344350014669 6.5299872676108262 20 57 53 0.44537345641219306 87 414 104 621 68 195 90 875 35 541
159 -0.58374664012459165 -2.2097069572250065 6.5394996516621458 54 100 95 1.0943962239561187 105 664 104 642
160 -0.733901598656992 -1.1622306919502141 6.9873801966599389 25 61 47 0.60257252451061227 88 703 104 667 36 477
161 0.3585486146635104 -1.6103365248911858 6.6593982941198018 72 120 122 2.1049979225998601 105 708 104 698
162 0.22701788130217457 -2.2779212615453148 6.3033279046060562 55 90 84 0.95551176677253291 105 710 104 701
163 0.55863814907179632 -2.1409061611903586 6.5938520680645807 86 121 114 1.4567374303662077 105 720 104 712
166 0.58088158729472239 -2.7280960601951816 7.0298105192041502 221 221 203 0.36125363650197329 88 74 37 89
167 0.4715828726929463 -2.5336108908928656 6.5582123205401857 208 217 200 0.062284084354896949 105 63 37 97
168 0.30454867154033222 -1.7257548017826903 6.445723505235315 77 124 116 0.21345176455830683 105 210 37 344 106 141
169 -0.0053905516014307892 -1.6909464978170907 6.4726789062712484 102 150 148 0.21676809493285473 105 220 37 346 90 625
170 0.10186645265009364 -1.6217566259360596 6.450125486720407 32 79 69 0.098697885849775624 88 261 37 352
171 -0.075965386554344178 -1.3588019628091401 6.6863019635200134 3 50 40 0.68564812465655911 88 459 37 367 38 551 17 201 16 107
172 -0.22913706375217674 -1.1270148208195401 7.0992902360801793 41 82 84 1.3092217259247472 88 294 105 258 37 392
173 -0.83379977713452702 -1.8242143359593919 3.8921198528527157 50 78 73 0.79332624227386139 104 354 37 416
174 0.38674128357269516 -1.9911717000412308 6.3988124841324883 1 44 36 0.39407999300998181 88 537 37 555 110 489
176 0.23236178888285425 -1.6312025440403597 6.5198147306683376 35 82 84 0.42030803223281338 87 270 88 262 37 595
177 -0.072430879030158796 -1.3342550848006731 6.6831455860563391 87 146 144 0.64894325399936625 104 356 37 614 38 415 106 597 36 191 16 109 110 682
178 -0.26259250303916198 -1.2759185205460386 6.7421740990864967 93 149 152 0.43842771227005506 87 285 104 360 37 621 16 118 38 557 110 688 106 303 15 114 67 162
179 -0.23900990111256515 -1.2707725862810537 6.7263794546646114 22 73 77 0.46638922945791877 87 286 88 469 37 622 38 423
180 -0.17560911149316358 -1.2645360213945072 6.733505262945978 79 137 139 0.68764708168597743 88 471 37 625 106 528 110 569 38 203
181 -0.89618994773030358 -2.9752531310275638 7.3646427493306641 184 190 178 0.71307747694742452 87 208 88 64 37 654
182 0.6012661349383599 -2.4708661509301586 6.8807517140051262 199 202 195 1.9328552915754436 105 318 37 683
183 0.27689769806475817 -1.6475107933433983 6.4898161884278336 91 150 154 0.84003968823063602 105 576 37 741 17 407 35 255
185 0.24904958211245823 -1.0345801515967483 7.1526997212969778 56 89 94 0.6150152454552037 87 353 37 764 86 117
186 -0.99332899899536253 -2.9485751818874895 6.9083865640384232 181 183 170 0.14785062220077883 104 594 37 772
188 -0.22073933903944998 -1.636538045426208 6.4869209531428949 95 152 145 0.68503280069622863 104 342 37 825 106 591 67 264 17 408 68 73
189 -0.91079716968826596 -2.9019725760196935 6.8949162825014136 182 179 167 0.57306078072961875 88 705 37 919 38 795 67 460
190 0.42397848650484832 -2.547826096144751 6.5098009104871668 62 106 71 1.1853239053665552 87 433 37 937 86 145
191 -0.73253306901114079 -2.9300140047055709 6.7083461208338484 189 191 180 1.0323065178894943 87 420 37 845 67 406
192 0.057892333330784723 -1.909916464098893 6.317091936735391 87 128 124 0.83084362679396351 88 416 106 389 35 278
194 -0.63991446416430786 -1.3353114342337737 6.8515507326926093 38 84 82 0.24693759989097738 88 467 106 430 67 165
195 -0.62326340228259514 -1.1287180434572273 6.8701927524526996 48 80 69 0.42281494912117634 87 296 106 445 15 128
196 0.48242730992731497 -1.0351208390915563 7.3351712792911989 32 56 57 1.3582958394586557 87 355 106 451 86 86
197 -0.78369921666897424 -2.8925047723713551 6.741783147185334 10 7 1 0.13857663078343216 88 588 67 369
198 0.037084406162482805 -2.2550686450488584 6.3534122811545819 54 90 75 1.142520560861747 87 220 106 481 17 280 16 36 38 489
199 0.098524343678401197 -1.733489311306182 6.4426400088471913 7 40 28 0.68168115167488619 88 623 106 582 86 75 38 640 36 400 17 402 35 423
200 0.26947791737037535 -1.6119566865085855 6.5123035519078627 68 113 110 0.45124702498581104 37 948 106 667 36 500 111 564
201 -0.15460479793040607 -1.4785736696842522 6.6165628300094772 30 63 46 0.84074890748699282 37 982 106 710 86 185 38 858 67 493 16 409 110 921 15 429 68 303 90 917 111 623
202 -0.051724323199106109 -1.0252499069056864 7.066734481823481 0 1 0 1.8972406271730911 88 768 106 712 38 861 67 494 15 431
204 -0.36369718743633406 -2.5989511821896834 6.4056270613956761 55 103 65 1.0975073406204483 105 603 86 11
205 0.26599514297223636 -1.0974386195074084 7.1654434153510431 63 110 116 1.4974757071905387 106 538 86 52 67 289
206 -0.64906951396214307 -2.3854818485453158 6.7598247750415608 60 75 70 1.44615758275743 87 369 86 102 68 175
207 -0.5668894623670675 -1.7284847358754443 6.5037936101397831 75 125 122 0.74247861754453504 106 629 86 110 38 711 16 286 110 824
208 0.66190656696162975 -4.5414198456573391 20.067037487050964 59 90 92 0.77986015658467145 106 539 86 116
209 -0.6744065830294399 -1.2050835299534 6.7962585376917728 22 71 61 0.8744399635679686 87 428 86 136 68 232
210 -0.70798220897868125 -2.2828741367024024 6.8236477402751214 31 70 65 1.9120472263271342 87 458 88 753 86 170 68 276
211 0.3277016063764645 -1.6455363386518043 6.5654151815357542 74 116 115 1.2282697198381463 88 738 86 171 17 530
212 0.18211882626082984 -2.1299912891774397 6.490935348346162 0 0 0 3.138285766122821 88 754 106 689
213 -0.1039790945159611 -1.9639018826923149 6.3101789392688152 93 142 139 1.3557446194321685 104 714 86 187 68 299 17 549
214 -0.37081880750921703 -2.055689820484766 6.5733772332174896 80 124 127 0.56730032457463075 87 485 86 197
215 0.24604206396638773 -1.6472429906347876 6.5227431337796862 43 87 90 0.3917525253481105 37 351 38 189
216 0.66810006255622423 -1.10778277936853 7.1488794693026962 116 142 133 0.54393973870696155 87 188 38 231 17 358 68 202
218 -0.7845848521697607 -2.8959111785644485 6.7666795394606423 4 2 1 1.3406912674787346 88 589 38 471 67 370
220 -0.68062671516926154 -1.2614977051001495 6.8175503969229796 2 38 30 0.47251366056075317 106 433 38 559 15 119
222 -0.26792111466257928 -1.5958246973267458 6.502562161013322 82 124 120 1.0690905660626575 105 396 38 649 36 305 67 139
223 0.080909583298925725 -1.9230584122485019 6.3111895815987884 25 60 56 0.84993007921967478 87 125 38 706 110 743 90 717
224 -0.70036785612465136 -1.0590738204781267 6.9517973281014651 56 85 81 1.0139190021548958 106 606 38 724 110 777 16 192 15 314
225 0.23404601248847273 -1.1112708572009273 7.0827395254092629 39 86 90 0.6192624538687993 37 884 38 725 36 284
226 -0.56740581826256087 -1.3135827098752826 6.8042682183466843 47 93 93 0.20750434607893131 37 879 38 763
227 -0.57385775532705519 -1.3075636607108307 6.7764271584480014 47 93 93 1.6242865561299213 37 878 38 764 36 296
228 -0.32177411667094402 -1.5782528534303908 6.5341548859527849 75 124 121 1.0839472874325879 37 932 38 807 67 438 16 327 106 668 15 346 111 565
229 -0.60957120650435748 -2.4850089947139069 6.6216974040009253 17 55 30 0.38111955830930588 86 127 38 817
231 -0.44974193270086449 -1.965414783894512 6.4621683422305267 85 133 135 0.57905262735002871 106 680 67 467
232 -0.18989827122964256 -1.6913262150707822 6.4591210748161991 74 133 131 0.82006003517689308 87 438 38 828 67 436 17 508 16 326 15 372 90 889
233 -0.38876019903475312 -1.8111995175794497 6.4357669732465386 26 64 51 1.4260210052042588 37 976 38 854 36 564 67 487 16 401 35 794
236 -0.089119214651724593 -1.9359248216250877 6.3433591886851612 88 144 146 1.628747887564203 37 981 38 863 36 569 68 298 35 802
239 -0.065946640889919972 -1.2341260097553841 6.8317684706785222 50 86 86 1.2443485124814759 87 462 105 709 88 757 104 695 106 698
240 -0.33036897352308681 -2.8270622535150025 6.13944996385018 37 79 42 2.2541524239119441 106 547 38 460
241 -1.6480194768754393 -1.7563099590364417 6.6836184289720508 0 0 0 1.2226467866386783 38 867 36 574
242 -0.98825264142868385 -2.4637247892634799 6.8125469193561665 89 138 142 3.0706811083525833 37 989 38 869
243 0.036080182800375005 -1.5230886161889723 6.5813443492467405 49 100 101 0.46446817848325095 104 168 36 21 35 18
244 -0.70509808345041269 -1.2747001126323538 6.855606940077033 54 93 86 0.74803468083987346 104 181 105 243 36 125
245 0.068731036637249804 -1.8062881425814352 6.3982135732647132 105 155 154 0.935119036329779 38 535 36 209 16 75 110 644
246 -0.0035147827207728127 -1.6234209344777262 6.5148756808003006 22 67 54 0.30361710464131314 106 515 36 304 35 257
248 -0.14414304170282469 -1.7051077571887583 6.4552713526790058 94 149 144 0.38763505692582734 88 625 104 560 36 402 17 403 16 88 111 466
249 -0.051257062456100302 -1.7310408774962607 6.4395495121954536 93 152 146 0.72731713009744325 37 819 106 584 36 403 111 517 68 193
250 -1.1969616582071714 -2.9172752889247544 6.9400438818413788 149 153 130 1.6605798818455693 104 595 36 443 35 635
252 -0.67212395418526505 -1.231479567214538 6.8833662241613958 34 65 50 0.44976668325025021 104 682 36 535 35 757
253 -0.46977006354232892 -2.0432127603361878 6.4394235248531251 72 121 117 2.0662720085288901 36 553 16 385 110 903
254 -0.13626889570197451 -1.4654827841107894 6.8860188859852318 44 87 68 0.10109575735688023 104 709 36 561
255 0.21480896638913283 -1.7791886493367266 6.5827645960207892 43 88 68 0.004258593576883558 37 978 36 563
257 -1.3335611212838152 -2.8472320066596621 8.0393887891356268 77 127 128 0.4284910935431141 104 705 36 571
259 0.20619597151205904 -1.5734619438866755 6.5340253245831663 44 72 70 1.3342978546423823 106 516 87 272 104 480 38 546 36 299 17 347 68 77 111 411 90 638
260 -0.10022073389583955 -1.7155374730617372 6.4497362118698982 6 47 39 0.65811203321309086 87 264 105 502 88 672 37 820 106 627 38 758 36 401 105 571 104 557 67 255 17 335 16 176 110 800 68 136 90 729 111 518
261 0.2802318447757251 -1.6786678522632745 6.4656626954932275 24 62 57 0.60262271111643517 106 514 67 130 111 402
262 -0.63799182116579267 -1.3384306271769268 6.8595417146514608 15 51 47 0.29422339946949028 106 429 67 164 16 122
265 -0.29194514016871653 -1.3358416772042401 6.7057429405850755 64 99 95 0.2721627958575103 105 409 106 598 67 278
267 -0.65021842225267767 -1.0534960174843826 6.8969371612521444 51 79 78 0.47736164440057183 37 644 67 293 16 143 38 573 15 197
268 0.081216064037509833 -1.9244102217407393 6.321435300173305 35 72 69 0.31373794153321999 37 870 67 330 17 443
271 -0.31887588166602732 -3.3450671453311962 6.1337207407125192 200 193 183 1.8631684338835126 86 142 67 423 68 262 111 491
272 -0.36241402934838629 -2.5470123653350827 6.1294284099989707 55 112 79 1.598934797735692 88 591 17 56
273 0.086338971253478225 -2.270713175880672 6.3827503091170694 64 110 99 0.62946363330356736 88 364 17 111 16 37
274 0.076562027956219234 -1.9043201142248434 6.3238679824257655 43 76 81 0.34697718111758463 37 563 17 160 90 605
275 -0.881370636383498 -1.9161402286986986 6.4843013913218819 109 168 174 0.47333492299623015 37 298 17 164 90 277 111 298
276 -0.29424508614695377 -1.3463103791924105 6.6865416340625412 89 142 139 0.64673281536582328 104 178 17 202 16 108
278 -0.33699996009998673 -1.2277139900091152 6.8449174210752091 93 146 150 0.10233238374468316 87 172 17 213 90 408
280 0.057772927261377047 -1.8996475241980479 6.3226783475792327 131 177 180 0.29410106659651353 37 566 17 316 111 388
282 -0.33898190005957213 -1.4835389464137452 6.5929660768118534 99 146 147 0.59525897388041515 105 401 17 349
283 -0.18890875598753992 -1.1642497503311082 7.1315618420176232 12 37 33 1.5579170888793687 105 415 17 357 90 854
284 0.091892632613381875 -1.9699835992911068 6.3006386204151745 124 172 176 0.34268835164372707 37 869 17 441 111 511
285 -0.12468595478892028 -1.2982680307143755 6.7717689279341462 83 132 136 0.27885708823530314 86 81 17 454
286 -0.74008399887830456 -1.0546335443508223 7.0215928160570478 139 157 159 1.510906689585608 105 672 106 674 17 481 90 830
287 -0.76036523013756252 -2.0369018981410485 6.4176275981904993 42 102 103 2.240268209370941 104 662 17 488 90 866
288 0.24090291130402006 -1.1030493346034465 7.3607642513214042 75 141 153 0.97005173425320546 86 176 17 541 90 919
290 -0.50170550572810479 -1.0213544717664425 5.8033298623687202 0 0 0 2.2271966666416243 37 984 88 771
292 -0.22165036152197681 -1.2570843751797125 6.7680436721416681 52 85 88 0.81680239765740414 87 170 105 244 88 577 37 748 17 211 110 571 90 650
294 -0.24999193510390269 -2.1724109796520255 6.375454378558449 33 97 91 0.32645509534280415 86 39 16 52 15 226
295 -0.37711808216897041 -1.9908693528505232 6.3494248366729984 11 61 60 0.34293386249516333 38 703 16 61 110 745 15 57
296 -0.48487689843236903 -1.7078027979700225 6.4889199571890348 5 56 57 0.6183690704894359 17 338 16 95 90 611
297 -0.59345764056243577 -1.3768682969071659 6.7625047930893656 77 128 135 0.42231558995059476 106 595 16 114 15 184
298 -0.645842867547194 -1.218376215212261 6.8358539749429363 23 67 59 1.4679492881585958 106 436 16 127 110 693
299 0.21344185309184038 -1.1343880735583549 6.942495643397403 64 109 115 0.94599513852298733 106 327 16 132 15 189
300 0.21344185309184038 -1.1343880735583549 6.942495643397403 64 109 115 0.94599513852298733 106 328 16 133 15 190
301 0.13484640992332173 -1.9390360278392698 6.3223648305343847 18 56 59 0.50285221097649113 38 746 16 163 110 791
302 -0.85569014123445708 -1.9845207196003214 6.4429043598198747 35 95 103 0.44964511098635951 37 718 16 169 15 233
305 -0.39652037948803365 -2.5617096656459264 6.1625601193095463 79 131 92 0.72747369799237349 86 59 16 204 110 717 15 145
306 -0.22398806697934698 -2.5263709396062732 6.1538530415059824 132 186 152 1.0600861601767577 38 688 106 616 16 205
307 0.32604865573483194 -1.820430117744583 6.4678462272433688 113 156 149 1.3642362858110835 38 753 16 221 110 798
308 -1.3967316464249033 -1.7397833005180656 6.6159147788545427 82 135 143 0.86944654421973178 106 630 16 228 15 330
310 -0.34708309625085321 -0.98012840193223916 7.0733323258090808 156 158 157 1.5804549814172233 105 595 106 452 104 581 16 295 110 781 68 239
311 -0.53921078939992784 -1.9807410111703772 6.3916409717180223 56 116 127 0.74876367519263953 38 783 106 648 16 309 110 836
312 -0.68041657493676211 -1.8956495569033232 6.5091160039790275 65 127 138 1.3380084264516998 106 663 16 310 110 860 15 344
313 -0.59106112633478114 -1.8616457983182699 6.5455490518484929 92 149 157 1.2568945893574988 38 825 106 670 16 346 110 872 15 369
314 0.43828925553089171 -1.8208365415803749 6.6443720153061649 134 184 195 1.8487649496218481 37 873 16 347 15 345
315 -0.26695362497278374 -1.7381141804131754 6.4251282167264128 28 69 61 1.298265039178456 105 683 16 349 15 371 90 887 17 519
318 0.19727675389918189 -1.7527917062943115 6.559060997313968 28 74 61 0.58856087027843362 38 850 16 386 110 906
320 0.44743036997778046 -1.328938878794653 7.1184349332284427 0 0 0 0.84820662007649339 37 988 38 870
321 -0.051077026295646727 -0.98405842946606514 7.1248424570883806 0 0 0 1.9714464816130501 67 495 86 189 16 414 110 927
322 -0.3169388737886587 -1.9960607811723898 6.3203259313225031 37 64 63 1.0938794956283122 38 741 106 644 37 929 67 384 16 279 15 290
323 -0.774428453665295 -2.3221759621222158 6.2860725455153261 121 140 147 0.9254355619189224 67 213 16 32
324 0.068364255044518749 -3.3245153283282036 6.2661594603101616 0 0 1 1.4043007462071162 17 542 16 381
325 -1.4448538852676325 -1.7154416099961896 6.6884012880530772 31 49 49 0.10681435765514008 106 420 110 324
326 -0.046168149708992801 -1.3626190385453745 6.6726799055923687 76 118 114 0.87122947923335703 37 364 88 458 110 331
327 -0.22131343584846327 -2.7502184101775522 6.0608587697156482 66 110 75 1.6481160514835675 16 201 37 770 110 609
329 0.29309962490854452 -1.2025606164183016 6.9110487909742471 44 89 95 0.92644061433075187 16 125 110 766 15 118
330 -0.37156098387960518 -2.2990203190781084 6.3014863309028017 12 53 30 0.2913047747801305 16 211 110 785 15 219
331 -0.58930295796845489 -1.0873962730995292 6.9112487326804377 74 119 124 0.39306295883815379 38 721 110 813 15 195
332 -0.75243938255057374 -1.926359094908507 6.5021296777216575 101 150 157 0.46805291559690093 16 345 110 883 15 368
334 -0.037078209049318245 -3.3043002588960801 6.1924904391580311 0 0 0 0.96206208166214324 106 686 110 893
335 -0.27957606890893005 -2.2980176614327852 6.3581738303224542 2 41 20 1.4043526348076132 16 398 110 901 15 422
336 -0.34074925314846793 -1.8272578087943321 6.4897922231269938 28 66 53 0.33600748717277773 106 703 110 905
337 0.038063676463740287 -1.3211988907380949 6.8755089660549871 64 113 118 0.18159569637834858 110 923 15 424
340 -0.83750776969828977 -1.4945474386915918 7.5422903712166764 135 130 112 0.60586755828975747 38 810 110 862 16 357
341 -0.51554554478428294 -1.6983122864544793 6.4842264028052119 65 113 115 0.80767457710687618 37 585 110 668 15 92
342 -0.25978543972397433 -1.3225179326863832 6.7046178079691039 1 41 40 0.23171352393927047 16 111 15 108
343 -0.74520250601858529 -1.4430668627557566 6.8774046677421445 52 95 104 0.76759291405037011 16 186 110 685 15 110
344 -0.52772465661210144 -2.3510034642958662 6.3400989861116308 30 72 47 0.43634011561123714 16 33 110 820 15 154
345 -1.4891443760419525 -1.7712970011506239 6.5626473494274782 146 155 153 0.85422442898445228 67 415 15 177
346 -1.4859558724840098 -1.6169129637673816 6.7140894642603017 133 143 142 0.61564252344576098 67 397 15 181
347 -0.27959024467669874 -1.6228178453703024 3.2898171221687309 199 200 169 0.047602377135708362 37 990 15 257
348 -0.66409416811167943 -1.1282439364022236 6.8907380258929045 19 52 43 0.51483653831892284 67 476 15 403
349 -1.3635468827122872 -2.2374812317032737 6.7139469430745935 71 101 96 1.2103357241889328 16 370 110 869 15 411
351 -0.44562699003018108 -1.092294168688521 6.8728224773766762 102 152 159 1.7279805686143115 16 413 38 859 110 926 15 436
352 -1.0125729008758968 -1.1019563847775289 7.233259477991016 0 0 0 2.0066730963821331 67 497 110 928 15 444
353 0.29800760561074957 -1.9930814151572953 6.3530216750940314 18 55 49 0.67626733739487033 86 19 38 624 15 52 87 326 105 358 88 533 110 484
354 -0.67222132362261933 -1.0744071748806403 6.9092103969054541 0 28 28 0.53292304317955075 38 722 16 191 110 815 15 196 37 761 67 292
356 -0.33234505065780884 -2.5046338613199639 6.2096003861953868 139 195 155 1.371219536998951 88 655 68 26
357 -0.2715117969613059 -2.0421884929649514 6.2948657802735895 81 140 146 0.13928465565124165 17 437 68 117
358 0.037067525383557717 -1.913770518462687 6.3698470684936046 112 164 160 0.25888783283989591 86 106 68 128
359 0.41061127068650899 -1.9119240265337174 6.4109436682829495 37 84 74 0.31862528486977354 38 747 68 131 111 513 90 827
360 0.052241939018528305 -1.5499172767981366 6.5828719421065403 94 150 153 0.92653246315604276 105 629 68 143
362 0.17021293158741377 -1.5928009680684216 6.5330118724790616 23 79 78 0.41894735416768852 87 415 68 196 90 876
364 -0.46656770503653999 -1.9654816998703806 6.3821631518345008 102 164 165 0.97328727802514248 17 504 38 821 68 257 90 845
365 -1.2998063058124865 -2.3336447853502222 6.6589304914325567 64 88 74 0.86380753965914825 86 128 68 268
366 -0.27566425681633466 -1.506302576862538 6.5884229307151552 54 96 85 2.1025356261432511 105 703 68 283 111 599
367 -0.39605355872319437 -1.8050174554747307 6.445121062689581 38 89 73 0.91230589207688184 17 537 68 294 90 914 111 609
368 -0.024209798528262581 -1.2535677531051366 6.8282669555622091 85 145 153 1.5164871201229411 38 856 86 182 68 295 36 552 37 972
371 -0.4328153919259401 -2.8894167757865694 5.964186127550275 200 217 198 1.4963420433724641 87 13 68 7
372 -0.12796879124392455 -3.3022472552961757 7.0413277370593512 41 93 55 1.7480819934881868 67 297 68 154
373 -0.72633293618944794 -2.1410094854448083 6.4130649336660621 38 97 92 0.18629612186483221 17 122 90 192
374 -0.73656140599072983 -2.0671634518308877 6.4925306301628254 76 133 126 0.73864817238251923 17 135 90 239 111 129
375 0.1215058373908408 -1.7055458244810546 6.4506980957068478 63 118 97 0.25847364218328533 37 588 90 360
376 -1.1818430124364281 -2.6612808000533774 6.7911242462876009 4 0 0 1.3259922664360388 17 270 90 505
377 -0.37127164283810105 -1.9824121809952258 6.3246549250946433 50 101 95 0.43007096334324579 17 307 90 590 111 124
378 0.20513068273656768 -1.1947460238244996 7.0369330667363235 91 142 146 0.73365291188107651 17 356 90 659
379 -0.70220626408408815 -2.1493099144922039 6.4090299430543105 93 151 148 0.65572419199846965 17 298 90 698 111 377
380 0.30576051914399549 -1.675326329490836 6.4581173627171813 106 164 168 0.49638584422999543 37 740 90 733
382 -0.14578996970047545 -3.3458075919685828 6.0149902058909124 4 0 1 0.0791833726827504 17 495 90 878
383 -0.74391793398273909 -1.9835814021694205 6.497180316888306 102 164 163 0.87154479803573348 17 505 90 883 111 577
384 0.3452178647360355 -1.9485230827154627 6.4069487448265168 55 103 81 0.9492387165602193 17 529 90 899 111 597
385 -0.3777686585479057 -1.6626719147592759 6.4839229729646997 69 125 128 0.70851083151930305 104 340 17 344 90 619 105 392 37 589 16 100 110 543 111 174
386 -0.053658240913933342 -1.010565786209989 7.0098247657370178 0 0 0 1.846781634161839 87 475 105 726 37 985 38 860 15 432 88 767 106 711
389 -0.68484797690253085 -2.0101370024986034 6.4469737121570372 40 92 88 0.96017903082582079 17 396 68 120 111 286
390 -0.26749797774976175 -1.8267156032319525 6.3831207241985899 24 72 56 0.2870957877909967 17 167 37 572 111 300
391 0.44377633813934725 -1.8946677158225411 6.4231150131010466 146 193 195 1.2811579665966171 17 318 90 348 111 391
392 -0.13478445609453718 -1.2887389528561266 6.7107947807580128 30 75 69 0.18956825664960625 90 649 111 414
393 -0.13769060076446352 -2.5927692790262289 6.1043847698087692 180 237 196 2.4786878338738116 68 18 90 804 111 435
394 -0.77211942084698104 -1.232631866413018 6.9064955157648873 0 4 2 0.12017403184403141 17 457 111 481
395 -0.92004778586624247 -1.2867981188748505 7.0656807260816326 0 4 2 1.3157733235506766 90 786 111 482
396 0.43541228942161886 -2.5644169241704753 6.2797177587750772 64 105 65 0.73176449595950588 90 808 111 499
397 -0.70731519636119866 -2.138907717997296 6.3620248653269593 52 103 104 1.3249630705164357 17 388 90 813 111 509
398 -0.027171185579768463 -1.694755935373097 6.4619876638349707 29 72 62 0.56991351134327084 68 138 106 588 111 520
399 0.70483949923490763 -1.5170790349431975 7.7834666745535319 146 150 136 0.076915324361921888 90 792 111 523
400 0.13816104914623178 -2.9759310250031454 6.1795371241772354 151 201 169 0.25195446114456005 68 156 111 531
401 0.38701168389318791 -1.7942604506749225 6.4689123149515435 152 200 204 0.15801123164601225 90 850 111 561
402 0.30203572636266712 -2.3939030408329565 6.314444892858285 69 118 72 0.38103909436388295 90 880 111 573
403 0.29970579295276034 -1.7629622354769965 6.4281983048542521 43 87 70 1.0865993001198688 37 959 90 897 111 586
404 0.20561802786704012 -1.7385649893438131 6.4350185161935354 46 91 71 0.25115287000840564 90 915 111 610
406 -0.98176220398021741 -2.2738343655715694 6.3345983619720174 145 203 205 0.0098320867830808505 90 921 111 620
407 0.10040707764919637 -1.0181293930756918 6.9397736315457292 0 0 0 1.5508298995945102 90 927 111 627
408 -0.14377148706455556 -2.926358024766901 6.3898781309214616 0 0 0 0.086107020367291259 17 555 90 933
409 -0.14377148706455556 -2.926358024766901 6.3898781309214616 0 0 0 0.086107020367291259 17 556 90 934
410 -0.43013339281636803 -2.9890951787653388 6.0134691143743595 0 0 0 0.55856850225403409 90 920 111 612
411 -1.2746005500733204 -2.3602047248340932 6.6730047831835542 50 77 72 0.22974078479892276 104 255 35 364
412 -0.23003283613081227 -1.8111147053973202 6.3644631102811635 90 146 145 0.018647901377152189 36 407 35 552
413 -0.063190291027648116 -2.5385350479721689 6.0307856740749255 148 203 155 2.5394677206873162 36 471 35 585
414 -1.2093354025555687 -2.8770373180382167 6.8276312770578755 145 148 146 0.84578617437512282 36 383 35 628
415 -0.30892546332585419 -1.6253990674041903 6.4896213738687889 80 134 136 0.45427206291356836 36 537 35 759
416 0.17271436515433281 -2.0047266760846139 6.3518964867066003 132 192 192 1.2733381948693232 36 548 35 780
417 0.20717962831055753 -1.8002241111725035 6.4004020904363506 45 90 70 0.56082602360387834 36 562 35 799
419 -1.5325077961671596 -1.5335007197062391 6.8753808937841976 157 167 168 2.117191606109583 105 580 35 434
