# 3D point list with one line of data per point:
#   POINT3D_ID, X, Y, Z, R, G, B, ERROR, TRACK[] as (IMAGE_ID, POINT2D_IDX)
# Number of points: 371, mean track length: 5.3318994043679684
5357 7.2701864508542844 -4.8204981394938615 11.705968030006629 179 174 168 0.21707658015309084 4 574 6 682
5358 35.272846271042575 -19.39371896967069 48.471119236345878 176 173 168 1.1702747956579695 5 527 107 545 6 686 118 1116 104 765 117 831 54 1462 105 576 106 1214
5359 0.38478495072064001 1.040292685605781 0.98718960367348163 153 153 148 1.4056678015487338 103 1223 6 699 53 1103 104 808 105 891
5360 0.20190171214546099 2.9136910307747494 2.1317998114364847 112 129 139 0.38304107597603138 104 794 6 743 123 500
5361 0.011721858862347057 3.3263914391158398 1.6354846112069814 2 29 25 0.31383611754251445 54 1704 6 755 53 1001
5362 -0.024752300648393261 3.3518728907954114 1.6539149863768077 7 108 75 0.45975338419658973 39 952 6 758
5363 32.761020792596675 -25.948093150504853 41.38762797671064 167 149 125 1.0808748718923065 4 843 5 743 6 761
5364 32.627070271146209 -25.839702766647939 41.226947619184017 167 149 125 1.1540518676529394 4 976 5 742 6 762
5365 28.055808583702966 -23.309259157495386 42.565326317274639 174 169 163 0.608573829488808 4 863 5 754 6 764
5366 28.495131558286811 -22.320669047838422 45.217174262729927 208 205 200 0.63553768653433307 4 745 107 706 6 768
5367 28.11230823471438 -20.099785402204613 45.367342852860816 207 203 200 0.58618745089922453 54 1942 107 729 112 1228 6 771
5368 32.704852480558465 -19.831801669991005 46.262008879419945 175 172 167 0.54581205289712531 4 895 5 783 107 885 6 772
5369 28.89662225008335 -19.184694921964937 46.09640619658915 200 199 195 0.57465566742811736 4 904 5 792 107 896 6 777
5370 13.306795843688501 -5.5410623058666602 16.887535894818992 92 93 75 0.95915348562422587 104 806 6 783 105 914 117 1052
5371 0.38557182492997277 2.0681066626677493 2.3194574021049053 183 226 233 0.71946323763089359 103 1237 6 802 53 1124 94 1063 70 932 7 1234 93 1154 122 1053 57 1178 58 1188 8 733
5374 27.385035224117779 -22.356167081881715 42.615727597711235 210 205 201 0.58835775268344526 4 879 6 821 5 761
5375 28.933410342430186 -21.640848609328327 43.835277977901555 178 175 170 0.63605993241878855 4 992 5 850 107 1038 6 823
5376 29.247678291309224 -21.88894393726811 44.286081841926098 178 175 170 0.53707417794356982 4 991 5 851 6 824
5377 33.107820379329425 -21.753219827915821 44.908641413153177 179 173 161 0.40519505129337602 4 885 5 772 107 870 6 825
5378 25.251098205593909 -20.619990325237705 43.501679160634183 204 200 197 0.67345313021908115 4 997 5 899 107 1042 6 828
5379 30.999908116496186 -21.23897487788345 46.090238901880745 182 179 175 0.39841605440162009 4 999 5 857 107 974 6 830
5380 28.756687979191184 -20.139894957906204 47.95055603601562 200 199 196 1.0743888955906242 4 902 107 983 6 836 71 1351
5382 17.86277602614614 0.58769915791765837 5.7824654450313986 49 67 69 0.41209841006560105 104 832 6 838
5384 0.27263347605071719 2.7041695620767929 1.6466292209608384 62 45 41 0.84375271640426686 105 906 6 865 94 1012
5385 26.286525554282616 -19.433616872525487 46.102308132442474 203 199 196 0.66440588894211672 4 1052 5 906 107 1049 6 874 112 1399
5386 16.083661121773673 -5.882823791811699 17.694417889575849 95 83 71 1.8886609298177544 105 960 117 1120 6 875
5387 12.421724281062406 -4.7178984645228299 15.204306180168784 52 123 104 0.079193569907490852 104 857 6 880
5389 0.23226887266272994 1.9759283373430614 1.33386609296595 0 0 0 1.0495001514081086 117 1096 124 1077
5390 0.24792227223550845 2.3082121436632188 1.2299357235439685 184 187 194 0.31326386029008624 105 946 118 1473 6 896
5391 35.518178820825881 -21.729757733230979 47.222019133123702 197 190 182 1.1222123195261335 4 1100 5 955 107 1090 6 937
5394 0.15348603022923524 2.6691415639017042 1.8259381294808743 6 30 30 2.546211077017341 105 949 6 948
5395 37.539444069931164 -20.239342992228082 47.45487014728149 149 129 96 0.75075292080745426 107 1100 118 1487 6 955
5396 0.69051921986271436 3.4583902203320274 1.8584532441715713 12 54 56 0.38294415090888123 105 975 6 966
5397 34.082788569940078 -24.844157497981815 43.611003622889669 209 199 190 0.99855940216577066 4 1113 5 979 6 969
5398 0.37360690933541629 2.2931362067421395 2.6180096558750772 0 0 0 1.024829108456593 104 898 6 983
5399 0.19926464559546803 1.7221688734012561 1.1627552453624377 88 67 70 1.9653834283503619 56 816 55 378 112 969 113 74 4 66 3 80 109 110 6 100 111 421 113 75 5 273 4 304 47 104 105 75 46 102 104 122 104 324 123 60 24 85
5402 0.16506271872481432 2.5939555394389022 1.5672455063889084 41 72 93 0.36526657025728132 5 129 47 368 6 184 53 503 70 430
5403 26.313190228545032 -21.600590438989169 43.421974552383212 167 164 159 0.49458325536084974 107 705 6 530 4 744 5 632
5404 0.30324214889685802 2.121103427286601 2.1538575874002324 2 0 0 2.6748511882386916 104 627 53 831 94 809 70 697 57 862 103 891 58 589
5405 0.68627039611565555 1.4746645004513184 0.97846165189830547 42 154 129 0.79353007784528273 103 81 53 38 94 68
5407 0.28404163181428599 1.5181334720076949 1.2300043607673596 56 86 66 1.7861884023926133 53 65 70 349 122 132
5408 0.49532815050134826 1.4093468452890172 1.9405607095204167 23 32 33 1.21376066829494 103 132 53 68 94 98 70 361 7 483 93 412 69 993 57 528 58 508
5409 0.13513527497175715 1.5407562950819562 1.2613144658580535 93 74 63 0.63265966789145134 103 854 53 73 7 484 70 129 93 96 102 385 69 1130 101 204 25 246
5410 0.18474755748356547 1.6104066865079882 1.2077455002185942 103 90 84 0.43160283980407466 103 684 53 78 102 119 57 715
5411 0.24981077699141213 2.0871964922428026 1.8195519991912916 36 54 38 0.76018760536545393 53 146 94 157 58 578 57 596
5412 0.32223839937315413 2.4148551931293332 1.1900005921209842 28 102 79 1.2183096173296135 103 516 53 166 70 410
5413 0.16675632018442127 2.3792671702447548 1.2418183343962719 8 48 25 0.4492209392730353 103 264 53 172
5414 0.086285149328704458 2.4095550229573317 1.5292024475825707 16 33 36 0.47227246041761678 103 539 53 192 94 208 70 424 93 499 101 95 25 356 38 305
5416 0.055762578727664047 3.1081510282014557 1.7935459804997755 152 161 168 0.43379392929558647 121 354 53 309 7 361 122 323 92 249
5417 -0.030324198213087017 3.0474317290552957 1.9097939930367698 113 127 132 0.20552045088731613 103 332 53 316
5418 -0.14301648281415777 3.1097412639905762 1.7727000842697209 55 61 61 0.34315548272208679 103 618 53 333 57 653 58 792
5420 0.40162230641704788 1.0227025690410474 0.97474311689709869 190 172 162 0.4167994555229117 103 626 53 357 94 368 70 12 7 18
5421 0.40782781202834828 1.3595313024999502 0.85750892803616863 211 222 224 0.5230298734041311 103 394 53 379 94 55 70 55 122 423 24 41
5422 0.16991613483808798 1.4439251281433896 1.0819473397402053 53 96 71 0.41019645275189393 103 672 53 400 122 616
5423 0.19759227440271743 1.4575751635794936 1.0651546438773547 71 119 98 0.57191929726255131 103 428 53 401 7 104 93 70 122 129 102 86 69 801 52 57 92 71
5424 0.18995660967431749 1.4661770668224896 1.0999456271257624 15 51 29 0.44949785538611658 103 673 53 403 94 84 122 447 102 90 93 394
5426 0.31571931601725034 1.4796981958800426 1.8776807047028723 137 134 115 0.97082157611264608 103 447 53 424 122 441
5427 0.31354382775260964 1.594624016405684 1.8816667833952136 30 64 84 1.6657610374566147 103 456 53 430 94 115
5428 0.011923500324940106 1.8295141242718251 1.169016908946602 86 74 62 0.75531456287480636 103 188 53 436 94 645 93 433
5429 0.17258746013852172 2.035683722457986 1.1399773224263035 135 138 143 0.27721819787649232 118 319 53 444 94 448
5430 0.029098686724940814 2.1242684851465312 1.1700123388631467 167 188 165 0.037116676211123606 103 510 53 466
5432 0.21121692247609603 2.4668707018283982 1.2290359481306918 86 98 81 0.24126791739642067 103 530 104 363 53 486 70 226
5433 0.13410566979610561 2.7423057776375184 1.7585045061278226 54 79 58 0.6902454341561558 54 195 103 298 53 520 7 294 93 233
5434 0.50099022756775491 3.1006812642215866 1.8231604418362748 131 127 123 0.32172197736511199 103 763 107 165 53 527 94 522 7 768
5435 0.16540609233226083 3.0281318700960154 1.8663019960405487 149 163 172 0.89261630580524376 104 224 53 542 70 263
5436 -0.084745460766822225 3.0754456307193339 1.8321949812797618 44 45 47 0.72012654782179197 6 249 53 559 94 336 102 295 92 260 26 231
5437 0.45748035727267589 1.1052909543700857 0.88648118532463716 246 242 241 1.1264815548863025 104 429 94 19
5438 0.40295213691557508 1.1291661671158655 0.9010304423044696 166 168 161 0.31951347570847377 53 587 94 373 70 321 7 433 93 343
5439 0.27666065510311666 1.1895754180908567 0.91747983371168396 224 224 216 0.24253981778148034 103 641 53 592 94 379 70 37 7 438 93 350
5440 0.14331978976590359 1.3159922003647311 1.0542336370540006 37 48 31 0.68138848794959384 103 829 53 606 7 684 102 357 58 951 24 237
5441 0.34377480793354531 1.4519108044445577 0.93998710927297136 102 146 139 0.53872236444009536 104 449 53 610 94 612 7 686
5442 0.16657745733566492 1.4069815763303304 1.0725154231398988 100 142 118 0.072589010540463975 103 668 53 614 102 84
5443 0.19841436178256505 1.4447416697015392 1.0672962884372836 12 46 29 0.56483661538620544 103 427 53 617 94 615 70 87 7 102 93 392 102 364 69 800 57 150
5444 0.14309807614643338 1.4504433431333825 1.1963526125429276 59 105 79 0.81212013207297973 105 51 53 621 94 620 102 537 58 165
5445 0.38889029626933558 1.6930724623922495 1.1839400937261413 79 135 125 0.39900110425569313 103 852 53 632 94 423
5446 0.35281811147486097 1.682720987066991 1.1837688172569671 24 43 41 0.31063730702178471 103 1023 53 633 94 425
5447 0.03375831371585164 1.948568062252686 1.3783906145745677 0 29 22 0.4491796380062118 104 343 53 655 94 455 70 181 7 180 57 736 58 572
5448 0.013343273476320028 2.0681780545779587 1.1574758801930751 170 190 164 0.50665633515707342 103 720 53 662 122 518
5449 0.021933199680461979 2.1034959324302616 1.1647343718170262 169 186 163 0.54148202697997416 103 722 53 665 94 463 70 397 7 519 93 681 58 879 92 569 52 388 8 131 9 400 91 133 25 132
5450 0.095004392424369699 2.2202222951455743 1.2379578147766397 7 20 11 0.53545264907274226 104 358 53 669 94 169 70 576 7 207 93 472 8 134
5452 0.36802347497348686 1.0678064302514612 0.93184782067392036 184 172 163 0.50124886050175566 103 992 53 754 94 746 70 504 94 583 102 513
5453 0.54395458508907235 1.273969586692747 0.87576154075681301 130 129 136 0.82286382936624702 103 1002 53 764 94 594 57 804 102 328 58 813
5454 0.20066274530363959 1.2744241831955352 0.97440010640782904 109 122 104 0.48740611364427916 103 826 53 776 93 614 102 527 69 1208 52 511 8 286
5455 0.12829907378731992 1.3432387837495319 1.0112207857035114 82 84 73 1.1793170480135575 103 833 53 781 94 611 93 384 39 112 122 849 102 359 69 973 57 941 58 823 92 61 52 52
5456 0.28860810825054672 1.6294482221559472 1.1725310407431211 99 132 124 0.32994922095527884 6 441 53 796 94 776 70 669 7 1008 93 814 102 547 57 950 58 962
5459 0.095711008576136014 1.8345478851442565 1.1229026359737966 183 182 195 1.0864903745453161 103 1031 53 810 94 642 70 552 7 712 93 668 122 869 102 132 69 1006 58 854 101 209
5460 0.2185470893607942 1.7741660281618663 2.1864344313551047 0 4 0 1.2997493669044833 6 599 104 614 53 816 70 796
5461 0.46965623146109037 2.0378510492543791 2.2794777018981511 70 82 72 0.45776938070225975 104 479 53 823 70 692 7 893 93 855 122 767 102 573 69 1146 57 849 58 868 92 723 52 564 8 488 101 76
5462 0.34419843618250723 2.1467887682248543 2.1990525249161181 6 3 1 2.1260809931209077 103 890 53 832 94 808 70 696 7 1034 57 861
5464 0.2072888197477018 2.4594103854453588 1.2249798861544674 85 99 81 1.3153174775043088 103 908 53 840 93 178 69 344
5468 0.53590391075750154 2.9787163836370829 1.8404662144790818 191 78 49 0.63913098420718539 103 927 53 862 94 832 70 727 7 587 7 929
5470 -0.21670879888141853 3.2389833820186364 1.7993885841187125 2 13 9 0.43166203833652012 103 981 53 890 94 862 58 939
5472 0.25165532979968558 1.2521164368577504 0.90738621478662351 254 250 242 0.48102279626798389 103 1094 53 912 94 753 70 649 7 992 93 787 102 523 69 1098 92 514 52 503 8 276 101 185 25 56
5476 0.028792107392437788 1.982867538126134 1.3268801897962019 17 60 41 0.39486749817437872 105 302 53 944 94 796
5477 0.32548693661897699 2.0787327883573754 2.0371431885320694 6 17 13 1.2770221651805413 104 623 53 952 70 874 94 914 7 1233
5482 1.1124141818158 0.8278229786025455 1.4365036778915958 7 126 84 0.24539863008202356 6 556 53 1023
5483 0.513036196210781 1.204321512291793 0.82268833456685819 50 161 139 1.5627555827337656 103 1171 53 1026 94 972
5484 0.37353425767360326 1.3642979251566225 0.88938974271965809 52 76 68 0.47260114653688462 103 1172 53 1035 94 883 102 663
5485 0.23351708465332355 1.3381035810503623 0.98294975431673104 111 133 122 0.57146833282899623 103 1174 53 1037 94 981 70 767 93 943 101 365
5486 0.093349208210560919 1.568406656214651 1.2615752973879859 36 26 12 0.78100834767626848 103 1184 53 1045 94 989 70 865 7 1104 93 1042 102 849 69 1398 92 886 52 870 85 569 26 667 65 686 101 373 25 487 38 594 95 273 96 265
5487 0.49017338670152666 2.994378379005203 1.8604804125136232 179 167 177 0.34629522418268671 103 1204 53 1068 94 927 70 819
5488 0.21880144923645589 1.513116508073123 1.7376502666801619 7 16 15 1.9682354869092678 94 1052 7 1226 122 1007
5491 0.14387697054380783 2.3197038380940764 2.1930870744655899 1 4 3 0.82780127536251658 104 722 53 1130 70 879 94 1011
5492 15.564921736348927 -4.7485988914957415 15.41462589344002 36 38 25 1.3034876776128672 105 935 53 1142 117 1101 94 1079
5493 45.90604320284163 -6.504990338363358 27.012112746955648 23 39 38 3.0596596940575691 5 911 53 1143
5494 0.45102229141252226 1.246114614099358 1.8685403488732373 7 0 0 1.1509155679415195 103 1227 53 1159 70 958 7 1220
5495 0.48800838526425372 2.9400841441334982 1.8863685222341995 157 57 28 0.69259154623020658 103 1243 53 1171 24 543
5496 44.526636982512187 -11.085227397326907 29.836870575069693 94 74 47 0.82945374967191343 5 936 53 1181 94 1111 70 985
5497 0.18819432829655436 2.8886021279495067 2.0923922300633029 121 134 144 0.89932661747249876 103 1272 53 1207 122 1062 101 523
5498 0.27144725875419773 3.0102534306572117 1.8423671873915066 36 35 36 1.9340385423492137 104 849 53 1208 94 1098 70 972 102 897 123 556 95 410
5499 45.020060366935915 -12.763090252988242 29.165126350744227 139 96 59 1.0212750385544838 5 954 53 1217 6 935 94 1147 6 918 70 1015 7 1279
5500 44.768731033987457 -11.175313687399637 28.484583558525042 21 30 27 1.6745621390158998 5 964 6 936 53 1218 94 1164 70 1016 7 1310
5501 46.375657871980174 -9.1489615478837596 30.901894798318121 24 37 39 0.6587402773307629 5 966 53 1219 94 1148 70 1017 7 1312
5502 0.22877224643618627 2.1295737732437674 1.9560757757676632 12 19 12 0.5148680217557986 103 1303 53 1234
5503 0.25891601129184072 2.3727413524920564 1.1901780277841461 182 194 198 1.7497180588132639 103 1305 53 1235 94 1158 70 1030 7 1296 93 1191 102 954 57 1202 58 1215 92 991 52 979 8 897 69 1437 9 898 91 784 101 548 95 473
5504 0.30045094649156812 2.9124482430765903 2.3596792307725836 11 13 12 1.383454871806687 53 1239 94 1161 70 1052 7 1322 93 1222 102 993 69 1492 92 1066 52 1062 101 575 25 645 95 476
5506 44.115724413898882 -8.8249675258484608 31.678687555067885 109 85 57 1.9489505478909801 5 968 53 1257 70 1059 57 1209
5508 -0.1907761195793147 3.2818518226413169 1.7527728523041448 15 97 70 0.43017859306373685 39 797 6 667 53 1009 54 1705 117 819 103 1080 94 953 7 1073
5509 0.56071244497988637 1.1947345905256732 0.94540385168884378 214 221 227 0.36691896147348702 53 14 70 28
5510 0.36261026426235365 1.425356701751533 0.90194588555708466 192 215 218 0.66975829301123246 54 681 53 389 122 114
5511 0.6350920672068574 1.1462872112785214 0.87374083147953419 1 10 11 1.2732432814977266 124 507 53 752 94 743 70 500 24 211 118 602
5512 -0.12816328780410052 3.2785040317022514 1.7137487312264161 8 18 14 0.48164994898007163 103 1077 53 1004 94 950 70 840
5514 0.6441606414461899 1.5047228230171366 1.0336091165878654 166 196 196 1.117735381592855 105 977 53 1265
5515 0.53163713720492778 1.0602664475353241 0.89638187118217527 58 160 144 1.5124378018151159 94 15 92 17
5516 0.36538589373494201 1.1035024019586916 0.92282407926888632 200 193 185 0.34620226256684128 103 629 94 22 70 22 7 432
5518 0.25212374264985782 1.197016009544271 0.92950154935486584 178 175 168 0.0064288659311685968 103 645 94 44
5519 0.30443797158002106 1.3448076699379647 0.91924512235848665 177 192 187 0.31076753813300195 53 34 94 64 70 61
5520 0.29500694033174346 1.3797306250981025 0.93525721781387927 85 93 90 0.37443061329398936 53 602 103 92 94 73 93 374
5521 0.67600654958478201 1.5931127653143973 0.99137527489370625 149 185 173 0.42467561792446601 53 47 94 78 70 79
5522 0.16490029958422353 1.4063334337795006 1.0702945415784315 104 149 128 0.31164135126212644 53 615 94 80 102 83 69 549
5523 0.19074344008832245 1.4536547090215062 1.0802796072022973 12 51 32 0.52149392427507468 103 430 94 81 93 71 92 72
5524 0.19205756599908319 1.4822482825796819 1.1091352899433633 54 104 82 0.40694360525334017 53 55 94 86 93 74
5525 0.45756853690783816 1.3541429522935196 1.9321776912056809 6 22 30 1.2556627265664209 53 66 94 94 102 105 94 96 57 177
5526 0.20633700085957574 1.5749607426475565 1.2171968573433807 41 42 34 0.24017398496532441 53 417 94 99 7 125 58 198
5527 0.19611067605845534 1.5691604889477988 1.2251120910232838 105 104 96 0.29696697398255378 53 418 94 100 70 363 7 482 93 409 102 115 69 991 57 711 58 715
5528 0.02413524673159434 1.8732928612899735 1.1748498433100556 166 169 160 0.85915496271278857 39 625 94 125 8 334 92 551
5529 -0.0076537634268395993 1.9395412792740363 1.1414433745959132 217 230 213 0.10452959861954518 53 445 94 140 102 151
5530 0.11249197402209254 1.9986677386474541 1.1668383120722354 250 254 251 0.81763248127181232 103 488 94 141 70 382
5531 0.52221734630497163 2.0440846480030088 2.2556807670081915 43 63 72 0.18790567025565996 103 479 94 154 57 732
5532 0.153374924408964 2.0931205044972807 1.6782693743670385 14 29 28 0.3905797195927776 53 152 94 163 7 205 57 326 58 315
5533 0.20503091874854529 2.1068801490276914 1.8368847427048096 59 62 41 1.761794145949217 53 157 103 240 94 170 70 407 53 154 7 536 93 170 58 319
5534 0.091114860586755886 2.243028766967365 1.2524300462935378 48 65 46 0.61744410412398321 53 479 94 178 70 212 7 217
5535 0.28531651910052025 2.4550751112031666 1.1790548860979038 145 174 160 0.38231566601523431 53 482 94 185 7 226 58 330
5536 0.59460817136431465 2.9780306044711002 1.8183821838939154 238 189 174 0.36379018303395799 53 508 94 240 7 276
5537 0.50098835539669595 2.8311259553399446 2.29517077974418 35 47 59 0.36144805539951397 53 510 94 247 7 281 93 237
5538 0.50095687253279331 2.8320339647774397 2.295499309801956 35 47 59 0.38624279862520994 53 511 94 248 70 441 7 280 93 236
5539 0.44152153760231705 2.7608288609843665 2.3919204429723093 84 91 84 0.79986929158023468 53 512 94 249 93 532 92 450 52 439 8 380 9 566 91 364 84 452 68 406 51 370 85 146 26 211 65 195 10 736 64 195
5540 0.46621156475093406 2.8411961209406984 2.3105067097578087 54 65 76 0.32926523709948113 53 514 94 252 7 290
5541 0.37931767058933608 2.8428573533715937 2.2861040977444187 123 134 136 0.39079353557165442 103 558 94 264 93 541 85 150
5542 0.10361712597052197 2.8038113910074318 1.7721843415683889 213 237 215 0.24623953313439922 53 529 94 267 70 610 7 598 52 201
5543 0.21626111716504426 2.7430981968218635 2.4932391938231411 76 75 70 0.22049508584301225 103 564 94 269 122 262
5544 0.19529611031655497 2.9256509648216573 1.825954988655353 142 156 156 0.26529052682771637 53 265 94 274 70 254 93 546
5545 0.11380017674293996 2.8403168957175304 1.8314599931503182 55 83 69 0.90600081494556117 39 781 93 260 52 212 8 195
5546 0.097913688048922309 2.862242922114814 1.8541437003765888 61 80 74 0.28458622198743716 53 272 103 308 94 277 70 458 7 321 93 269 122 294 58 634
5547 0.08997574398191821 2.8922266961083567 1.8588811193593857 28 49 40 0.4118482441540024 53 279 94 280 70 260
5548 0.098263066888047201 3.0446934380143791 1.90863421263031 19 29 32 0.19978139474222828 53 296 94 304 7 346 122 305
5549 0.0088943868014770833 3.1212761628335355 1.7345655532612443 148 155 161 0.13831690380152442 53 318 94 325 7 369
5550 -0.2416601536813115 2.84941944966616 2.2209159123173423 45 49 48 0.3271239011158798 103 611 94 332 70 278 7 385 57 783 58 655 81 499
5551 0.26832111180943058 1.1379545826383675 0.92815438221032254 175 168 158 0.73870724677195232 53 590 94 376 7 666 93 346 70 325 102 36
5552 0.21579026768787912 1.4638508304119795 1.0599203862431161 34 85 66 1.0369773073548523 103 126 104 87 94 409
5553 0.39193744439523825 1.8057458170763552 1.2500185034903466 141 124 117 0.30505727567071417 53 644 94 434 70 145
5554 0.19072462043278171 1.7877297363309186 1.1345695096793471 154 128 139 1.1526863585248437 53 648 94 439 7 491 93 109 102 558 69 1132 57 961 58 970 52 77 25 251 38 262
5555 0.41557124350283148 2.0488256846058186 1.2413877728226312 0 11 2 1.9719504153440566 6 598 94 444
5557 0.17527623902335643 2.0369133099911241 1.1417845676199949 138 150 148 0.35486998615904819 53 443 94 449
5558 0.21858024715539692 2.0638474791315438 1.1614330617724353 240 252 251 0.74106477046905328 53 654 94 451 123 183
5560 0.022527828876907324 2.1194701622470258 1.1638623779887047 169 194 172 0.35061056391617251 53 465 103 509 94 468 70 198 7 523
5561 0.24399823945379423 2.0876550205852329 1.8783830797480938 59 61 47 1.0103749623653373 53 150 94 472 70 405 7 529 93 162 102 175 92 416 52 402 8 356 91 156 84 407 10 500 38 102
5562 0.25104291196488743 2.0956186499868861 1.8859226961175661 59 61 47 1.1782196865649806 53 149 94 473 70 404 103 500 102 176 58 743 38 103
5565 0.035952407578671575 2.2942361706971384 1.7486935389068026 55 62 46 0.30584428067380937 53 490 94 494 70 421 7 565 102 445 103 533 69 1045
5566 0.21786317388804216 2.3908461690807132 2.189417346036048 40 107 79 1.233377675917801 53 682 94 497 8 635
5569 0.41081932228063123 2.8244827504608825 2.3343117847099024 26 33 41 0.12890373860672899 103 749 94 515 7 591
5570 0.35013317208111228 2.884442851950991 2.2223227494440296 130 139 146 0.45924827070832308 53 706 94 521 70 451 92 454 102 250 52 444 9 443 77 1245 48 845 18 267 19 473 17 552 78 220
5572 0.15890763761303262 3.1321884971547052 1.7645429905924792 59 63 67 0.65824148200046362 103 782 94 545 7 782 93 554
5573 -0.19598107331717143 2.676545673877921 2.5287924754901936 47 50 41 0.34021777314143675 53 288 94 546 7 788 93 572 102 494 9 303 91 245 101 132
5575 -0.073969077492274021 3.1207331457237153 1.7517821613078892 32 36 36 0.4928989519856149 53 562 94 559 70 485 7 379 102 298 58 791
5576 -0.10069364281176228 3.1714499368205886 1.720290591204602 33 36 35 0.48536623914957328 53 569 94 563 70 632 7 641 57 918 58 934
5577 49.663661465148621 1.5025975619950187 13.706775861479553 104 106 96 0.49761749517810872 6 540 53 579 94 570 9 471 8 412 92 622
5578 0.38676178684610851 1.0968373797496078 0.88655342695008332 206 203 204 0.40689556867123972 53 585 94 585 70 505
5579 0.3272443496039823 1.0855299716034941 0.9056926997402478 254 247 239 0.33574584575868227 53 756 94 586 70 507 7 820
5580 0.27327219960391053 1.1555868081738085 0.91761048951362956 246 242 233 0.5652297016179284 103 811 94 590 70 516 7 667 93 603 102 520 69 1096 52 497 8 38 101 13
5581 0.29046363334875708 1.1748305400328714 0.91914753032626717 119 133 127 0.28228653856618996 53 591 94 593 70 518
5582 0.35184758997664545 1.4526652200101378 0.94369967283863032 111 146 140 0.5652735199746588 53 609 94 613 7 685
5584 0.19037955562123288 1.4955277467498975 1.1165110949035251 54 108 84 0.7429922235838935 53 786 94 621 70 660 102 535 93 808
5585 0.15931979978995375 1.3819974030574569 1.4295657466434215 120 150 128 0.25768577434822709 53 622 94 624 70 530 7 850 57 945 58 955 101 39
5586 0.12622210217887941 1.4832730499964712 1.2883402141299083 89 87 74 0.36198773742247736 53 625 94 628 70 356
5587 0.31433644321231569 1.6548716276672399 1.2033122305009614 60 74 69 0.2882097744008506 53 799 94 632 70 541 7 863
5589 0.12509819006198442 1.6512824320942514 1.1934784047782849 95 74 65 0.8541919711822451 53 805 94 635 7 868 69 999 52 341 25 99 38 52
5590 0.16282844483446329 1.7185079895639073 1.1591254536194735 153 133 132 0.14369810897061069 53 641 94 639
5592 0.063691223195902397 1.6921524795829668 1.5558858691307784 64 61 46 0.36472318168297724 53 649 94 643 70 374 7 502
5593 0.16448790904251054 1.9630811882868475 1.1368334443846919 224 253 254 0.14551565827027105 53 651 103 870 94 648
5594 0.00043612023484718154 1.863710263546756 1.2237644658141509 82 105 89 0.86841211629950388 105 85 94 649 38 282
5595 0.13797784888324055 2.1898880415503332 1.1883673762604237 55 76 69 0.93713997974859065 53 825 104 629 94 667 123 86 24 268
5597 0.21333992340824459 2.4391973511675555 1.5111733257157844 85 130 145 0.47729035678170723 53 843 94 676 7 559
5599 0.13307032853701922 2.6080397681310599 1.7852718301825812 53 71 62 0.9550180900186036 103 752 122 665 58 904 57 890
5600 0.56427947627536179 2.9493050545484456 1.8144277219108473 219 84 42 0.54943765007733836 53 857 94 693 70 722 7 749
5601 0.45323524974781637 2.8083279131149226 2.2880617405089319 159 169 178 0.83052448914825872 53 860 94 698 70 605 7 754 93 727 102 464 92 449 52 437 9 252 91 209 25 153
5602 0.41149168951208215 2.7920463359526657 2.3358586912501469 85 89 89 0.65769253690607077 53 861 94 701 70 730 7 935 93 891 102 606 57 887 58 899 92 753 52 591 8 510 9 567 91 500 84 453 51 369 85 149 26 395 10 735 101 106
5603 0.46183060988041946 3.1343701356243199 1.7866551532086246 65 69 70 0.58411294395400759 53 712 94 708 102 607 93 537
5605 -0.33372408072204734 2.9977548686716524 1.9617154654722189 26 32 30 0.27385270259381722 53 739 94 732 58 937
5607 0.35382974966324143 1.0667051142985047 0.92590700718898911 182 173 164 0.23870670734433674 53 753 94 745
5608 0.27709418717674661 1.0657925458297004 0.98932216897822201 215 208 198 0.48497225232523056 53 906 94 747 70 512 93 780
5610 0.3058802186153704 1.161374714689823 0.89738595946217192 251 249 247 0.1949774245852646 103 1001 94 749 70 643
5611 0.14493947216867681 1.1485079852434756 1.0314077550042744 177 178 170 1.0260362749116918 6 424 94 751 7 825 93 935 69 1291
5612 0.41110324400535025 1.391792321573057 0.89106439277830429 215 229 228 0.18016689554770374 53 1036 94 757 70 653
5613 0.12692413778953043 1.4341361384774134 1.3284627181335762 37 60 40 1.102945497825655 53 791 94 771 70 664 69 1300 92 680 52 669 9 652 91 563 84 729 68 643 51 436 85 375 26 450 26 657 85 490 65 477
5614 0.15696335500990849 1.4033919891792266 1.5043810275014047 79 69 57 0.073135749280306264 103 1018 94 772
5615 0.12491763968144759 1.455351289251545 1.3694166399834216 49 50 34 0.72824309944978971 53 626 94 774 69 1229 58 964 57 954
5616 0.20776450837525873 2.0015521245566288 1.155709186812039 38 139 110 0.29546822010971641 53 938 94 791 70 684
5617 0.074371790035832164 1.8852216229099115 1.3630188742906739 0 14 7 1.0060523134026651 53 940 94 792 70 794 7 881 93 973 92 810 52 876 102 149 8 717
5618 0.26253640167918607 2.0386785100889822 1.8491096865157752 55 59 45 1.1578518208550508 6 315 94 800 7 1030 93 982
5619 0.2254065860660765 2.3929181908906307 1.207863459607613 114 113 108 0.11217257185177258 53 959 94 810 70 698
5620 0.21383580746297542 2.366008588194314 2.2644275678036712 2 0 0 1.0179696504394371 53 845 94 820
5621 0.20971826523520742 2.4046943559413716 2.5109123125022959 0 6 0 1.5458975972338056 103 913 94 825
5624 -0.15141502528584252 3.152448487701216 1.7116354245907939 70 74 73 0.58927505078785358 53 999 94 856 70 837 7 1066 103 1159 93 1019 122 921 102 731 57 1078 58 1085 101 243 25 443
5627 0.55279559642414489 1.2585456697488677 0.90311090864963617 243 251 249 0.89190021598429914 53 910 94 877 70 763
5628 0.39328734050255187 1.3325688570852352 0.87567177624723824 248 255 255 0.22227772443771832 53 1030 94 879 101 262
5629 0.12054412157201283 1.3599199372692679 1.2568012423823394 49 107 79 0.050609380577357289 53 919 94 889 93 953
5630 0.11987580731694836 1.3609189573993468 1.2572275391716592 49 107 79 0.47313932418781185 53 920 94 890 93 952 92 670
5633 0.13403456659427931 1.4563283502683864 1.5888659408033852 79 71 63 1.8552172178279236 53 801 94 900 70 782 95 343 93 1148
5634 0.41807415786978852 1.8043909421603794 1.2007356694124525 39 129 100 0.21406583042392383 53 932 94 902 70 783 7 1105
5635 0.43648127054570063 1.821047785019392 1.2509037947533925 56 43 32 0.044764682872794698 53 934 94 903 70 784
5636 0.2065052957941122 1.636562143411286 1.9028018468962435 13 54 44 0.38153154225170371 53 937 94 907 70 789 7 1019
5638 0.28239616939720041 2.8515675616872578 2.2849858434447667 13 17 18 0.62069054706400428 53 979 94 935 93 1070 102 807 25 433
5639 0.11981624159797022 3.3793076966830466 1.7726568786003569 10 24 19 1.9208874695432101 53 996 93 909
5640 0.27128829252649428 3.5696511235205612 1.8208460452622215 9 92 62 1.6413862032960072 39 884 94 947 70 838
5642 0.37449294576055792 1.5198665745000237 0.97012790010014494 247 253 253 0.96247760985730924 53 1108 94 983 70 916 7 1179 93 947 102 878 57 1166 58 1176
5644 0.47323517131318815 2.1015637608195874 2.2068213622234762 81 139 130 0.84086061426859526 53 947 94 1001 70 931
5645 0.47323517131318815 2.1015637608195874 2.2068213622234762 81 139 130 0.84086061426859526 53 946 94 1002 70 930
5646 0.10008745827758003 2.1494753940366267 1.7822729174053085 49 53 36 0.3678899858343001 53 957 94 1007 70 935
5648 0.13602854408233955 1.4524916072127494 1.2626670710153194 24 68 45 1.201197301804303 53 1110 94 1050 70 918 7 1181 93 1101 102 847 69 1353 92 882 52 865 8 710 9 748 84 839 68 771 51 434 85 367 26 570 65 594 101 369 38 582 25 335 96 195
5649 -0.2347374738344645 2.7455059287410726 2.546490883298179 2 15 5 0.53926427595612636 53 1082 94 1073
5650 -0.16825490111054614 2.7919179895358464 2.6375053215133835 2 15 5 0.84181610809233287 53 1081 94 1074 57 1110
5653 0.28433687412442338 1.5026940209932795 2.0874686330224494 40 92 70 0.83044374443756852 53 1197 94 1090 93 1150 92 986
5654 0.088000878364484725 2.1142897000932876 1.4495428565052189 8 37 44 1.0608068425558101 53 1203 94 1095 70 967 7 1232 102 855
5655 0.19617380508744942 2.3937638339698926 1.2359050452615481 41 54 36 0.888794424375978 53 1169 94 1096 70 969 101 496
5656 0.28546023663430781 3.0216916085148098 1.853606335829721 41 32 35 1.2345971783633136 53 1209 94 1097 70 971 7 1240 93 1117 123 557 101 499 95 409
5657 -0.073569839252200245 3.2544908696825234 1.6626147845002395 8 26 18 0.86348144835544061 103 1246 94 1103 70 976 57 1147 58 1128 25 523 38 459
5658 46.009394164736705 -16.198821746881151 29.381917023559311 73 56 26 0.94199645526401887 5 933 94 1105 6 913 7 1248
5659 45.279409054304793 -14.012629041022009 29.523654991695771 82 52 23 1.9372880980713159 5 934 6 871 94 1107 70 979 7 1249
5662 0.32784095855006329 1.5679280695228623 0.98225043785723931 0 0 0 2.0761610366010701 53 1192 94 1129 122 1106
5663 0.48499348321800906 1.4365911926648232 0.91358964858042813 194 218 220 1.6103883086796433 53 1248 103 1300 94 1151 70 999 7 1214 93 1140 58 1142 57 1126 102 843
5664 0.27334784616259611 1.5190070768347963 1.8762714884007696 146 142 129 1.0969202128375573 53 1196 94 1154 70 1024 7 1318 102 971 57 1213 58 1227 101 547 25 636
5665 0.43001054755669543 2.7085380168655897 2.305559168006964 18 28 30 1.2613828298354399 53 1206 94 1160 70 1033 7 1302 93 1193 102 960 57 1219 92 1030 52 1018 8 935 101 553 95 444
5667 0.27461956989664305 1.4645942424993759 1.5894062749650471 43 40 25 1.8672873092910756 53 1250 94 1171 70 1044
5668 0.26657764427374453 1.949651406000984 1.1153803354474769 1 1 0 0.9025170197114385 53 1251 94 1172 70 1026 7 1293 93 1188
5669 0.42931471359563844 2.3187334401746393 1.2013438570554293 0 1 0 2.3297782292501146 94 1173 70 1046 93 1210 58 1229 57 1214
5670 0.082865502507312894 2.663673040945485 1.7915332733668303 16 28 24 1.6594307917217752 53 1255 94 1177 70 1050 102 992 57 1230 58 1242 101 574 25 632
5671 0.33257706010565113 2.7919221128424376 2.173012775648453 156 169 179 0.82194992784890819 94 1178 70 1051 7 1332 102 990 101 571
5673 0.35012649532204976 1.3690158126424417 1.2561328106881291 33 89 62 0.83061388397600133 53 1266 94 1194
5675 0.21140496372004208 3.0780593985573286 2.3610269380579743 8 12 13 0.91982265630066118 53 1279 94 1205 70 1079 7 1353 93 1253 101 600 95 530
5677 0.58495684174726392 3.0123827674146142 1.936948837886006 0 0 0 2.6123813306310613 118 1510 104 907
5678 0.13710955730722041 1.5072524238462328 1.2903621640978762 27 22 10 0.49351811929279527 103 1019 53 926 94 775 105 60 104 458 70 534 7 859 93 816 102 681 52 671 25 338 38 507
5681 0.31876523589337896 1.091241869357533 0.97229355604155276 162 155 145 0.33366665529994421 103 999 94 748 70 642 93 782
5682 0.07236403725887211 3.5282291196957885 2.3578491045576477 8 74 40 2.3218031929079022 105 753 94 956
5684 0.26685896194870173 1.5417657280263886 1.6596713766075362 73 59 46 1.0612125923732305 6 859 53 1194 94 1132
5685 0.19950648187557413 1.0750724023861566 1.0928001983762194 155 157 146 1.3630390626539732 70 35 23 15
5687 0.52762272151966838 1.3055520394522906 0.86990860319113994 113 129 136 1.7228500254942312 94 41 70 43 7 37
5688 0.34996888148722827 1.3556926050341589 1.7030255060974522 104 142 129 0.35626591189681506 94 92 70 103 7 111
5689 0.18517755428942895 1.5118735842324058 1.1530883991205321 59 98 79 0.24116010510852962 94 93 70 104 7 110 103 145 102 99
5690 0.39267412696551429 1.2930471612828027 1.9198596124592537 12 23 31 0.44853960688523309 103 122 70 105 58 154 102 101
5691 0.1298864009860542 1.4346282888692847 1.3547016353660282 90 93 81 0.23928673236425099 94 415 70 111 57 704 58 709
5692 0.19241965794074695 1.551843108085424 1.2089619757669303 26 39 25 0.42827103059214172 53 72 94 419 70 120 57 535
5694 0.0043960637119166979 1.9419658688029193 1.1462418250487638 216 224 211 0.6003755524125004 94 139 70 174 7 510 93 447 102 150 69 856 92 126 52 102
5695 0.053749597741002048 2.0437094198543484 1.4091089106993908 59 84 77 0.89448193646402852 94 662 70 194 7 521 93 468 57 318
5696 0.25258041360423328 2.0895322945906418 1.8671352833886141 13 19 6 1.3208296614687427 53 151 70 203 7 202 94 161 57 598 58 580 92 414 93 477 84 93 38 96 26 162
5699 0.11464503509545565 2.944194905872549 1.8435540840058278 116 131 134 0.29409443252512807 94 286 104 395 70 261
5700 -0.10896122846227504 2.9968020564366742 1.9665180826735074 33 42 39 0.26736151789957252 103 614 70 277 102 296
5701 -0.2329878083909753 2.9473673539149408 2.0551465656586725 31 37 37 0.26625835440439544 53 327 70 285 58 377
5702 -0.1894369330527462 3.0339549543332502 1.8974486493237648 33 41 43 0.36565716174060064 103 344 70 290 58 662
5703 0.35795047412024994 1.0251470204637287 1.0064673881410111 198 191 175 0.6608487993274369 94 370 70 316 7 657 93 774
5704 0.19801575652870734 1.1540494086196504 0.98452905466369856 200 203 192 0.51126252033376229 94 596 70 330 7 670
5706 0.34131660690085752 1.3520278773473244 1.6200214752726301 165 177 183 0.90620769814511881 94 90 70 345 7 473
5707 0.19128348528198508 1.3766325824542518 1.4648271190669595 45 67 54 1.0275393018763979 6 73 53 63 94 412 70 347 7 694 93 636 102 542 57 827 58 835 8 444
5708 0.38155240342962216 1.2768068438158939 1.9100932487824354 134 148 149 0.47237295638745863 53 408 70 348 69 813 58 497
5710 0.18133500059719532 1.5668896828270922 1.8156326660338404 122 135 123 0.68260638356915315 94 116 70 371 7 144
5711 0.0067890830615537634 1.9952052045815829 1.143579971345241 31 36 28 0.63853556490394514 53 123 103 226 70 385
5712 0.0069364892529598099 2.0221318796357184 1.1601744306526496 66 77 61 0.5387343311235856 94 149 70 390 93 141
5713 0.0033597226426967386 2.0468360599907736 1.1608116725050488 41 73 50 0.71512409658218923 94 458 70 391 7 187 93 147 69 665 58 577
5715 0.017795410777478038 2.0704769503745935 1.1609559476109248 185 214 192 0.68345446202550098 94 459 70 394 7 516 93 460 102 162 92 146 69 666 52 117 8 127
5716 0.20942240584111477 2.1046820178050005 1.8236554511173808 17 21 4 0.76318218853535469 53 155 70 406 7 211 57 606 58 587
5717 0.40298084965379755 2.0942585777728016 2.3180445520926454 13 103 72 0.53728270821310753 53 153 103 715 70 409 122 770 58 875 123 174
5718 0.044920056154589272 2.2765249142944075 1.6923456294722827 41 48 32 0.29107823084968715 94 200 70 420 8 167
5719 0.24930092665899412 2.921869018971913 2.1451576248624917 117 130 136 0.49023863809287282 53 534 70 457 93 274 102 261 76 280 10 295 48 341 60 1444 77 959 18 256 82 740 72 454 87 613 83 328 81 486 88 548
5720 0.20174458233506659 3.2062470062419326 1.6296308612034713 77 85 87 0.38420091983890869 104 243 70 467 69 903 37 157
5724 0.36032622250975477 1.0286072214678688 0.98067265127325987 195 188 176 0.74766913293116577 94 369 70 499 93 594
5725 0.40312547441224034 1.0821846257759222 0.91592485429317272 186 184 185 0.55214532867304256 94 579 70 501 7 428
5726 0.38424381625534598 1.0696110579682951 0.93781429011753203 172 167 163 0.62576328411135207 94 582 70 503 7 817 93 775
5728 0.30869519361758524 1.1165134961568723 0.93535467885441193 148 145 133 0.16142988712800085 94 588 70 513 7 821
5729 0.23943848199227497 1.07958017936099 1.0235040094828989 131 129 117 0.32879650752665879 94 589 70 515 7 665 93 602
5730 0.25711951130683175 1.152792194027406 0.93843564075652186 235 234 221 0.71672504083260014 94 592 70 517 93 785 69 1202 52 638 92 650 8 267 9 490 91 404
5731 0.37518153032660584 1.2658189477788564 1.9269874646809946 60 67 59 1.3549321179397498 53 785 94 622 70 529 93 643 69 1114
5732 0.33046866135398467 1.7680788772696636 1.2115566399431921 72 53 52 0.60203307258121019 53 640 70 546 7 706
5733 0.09174278602473912 1.7918464204332298 1.6000241893425255 3 12 7 0.56793884932947891 94 650 70 557 7 508
5734 -0.0069730901467610629 1.9515546440082936 1.155336800652996 57 82 63 0.43872106886241796 94 452 70 561 7 512
5735 -0.0060070928438625826 1.993858305851417 1.1791142946883415 82 90 70 0.54473898517717612 94 657 70 562 93 456 52 383
5736 0.52805052388088458 2.0288317844510559 2.2681743934957361 41 64 73 1.0908138219047581 94 660 70 568 7 890 93 850 102 698 69 1311 57 1043 58 1052
5738 0.18315846344645226 2.3723444958964488 1.4872637644417401 80 83 72 0.6638546320702684 94 675 103 727 70 581
5739 0.24212709421451867 2.2882370934294083 2.089251607224778 50 96 76 1.4365997562351738 53 839 70 582 7 732 93 501 102 441
5740 0.10421876944767805 2.3530458068344204 1.6635088868864711 14 29 32 0.30642189310069456 105 539 70 584 93 707
5741 0.13547882888476898 2.6002053559538951 1.725132546620983 61 81 66 1.4521844466559981 104 512 70 602 7 746 93 513 102 226 92 439 52 425 8 180 91 181 25 157
5742 0.30020519667683715 3.0629220477058792 1.8920745709499873 66 64 66 0.41444023217903753 94 533 103 948 70 619
5743 0.18646650820053745 2.9115332082608161 2.1744389856752289 28 37 42 0.38942905917098558 94 282 103 774 70 620 7 611
5745 0.043208025464840399 3.182676310643398 1.7065128447522673 65 70 73 0.65463891060426316 94 721 70 628 7 958 93 750 85 164
5746 4.6460969556228955 0.2840663988961018 3.1061430659889147 1 6 4 0.54950409672342582 6 542 70 637
5747 0.19018061557562604 1.0725346523350501 0.88940049165597534 220 214 202 0.51692322595498608 53 757 70 640
5748 0.15978678588749984 1.1466113355622798 1.0377407176333899 156 161 154 0.070981499789999458 94 750 70 647 7 826
5749 0.14540565143995182 1.2544035696939095 0.98410268695776992 147 158 142 0.40748093552867287 94 756 70 652 93 793
5750 0.1269749142795763 1.299075936620798 1.0609794435903299 86 115 96 0.49253395535611455 53 780 70 656 93 621
5751 0.1801352716051563 1.4091794190541851 1.5193126091292251 79 71 58 0.56722117950712425 94 773 70 668 7 1006 93 964
5752 0.31924720233195802 1.7387430721383266 1.1638521944435478 36 38 29 1.0966704608313911 94 782 70 673 7 866 93 822 8 456
5753 0.41636737884602093 1.8258841345138772 1.1778454992949188 2 0 0 0.35111801021118644 94 784 70 675 7 871
5754 0.21073265808007424 1.9671412362750524 1.1051165218019241 1 3 0 0.87459460186007454 94 790 70 681
5757 0.15831102223480009 2.2796168908374228 1.1980308037240022 83 82 78 0.92804200134070469 53 954 70 694 7 728 93 690 92 160
5758 0.81647929782066941 3.100227725938753 1.7700159972246228 53 62 59 2.0975853600644836 53 853 70 715 7 919 94 826
5759 0.56714543291155106 2.9173148574550813 1.7338261003490469 51 52 59 1.6321978008565854 6 491 70 717 7 1048
5761 0.24370688305992388 2.924483975265507 2.085576778194413 112 126 129 1.0077762342193737 94 710 70 741 101 118
5763 -0.049035952406875347 3.1426566334376633 1.7479034138510099 79 85 85 0.30333628673456486 94 724 70 750 7 960 102 492 57 915
5764 0.31292259230925462 3.6622752158921785 3.1470515698780108 0 2 0 0.89692847730016179 5 610 70 755
5765 0.45812470596801558 1.2492933126104526 0.859882120061496 249 253 253 1.3176396514142252 94 878 70 762 7 823 70 644 52 496 8 40
5766 0.14840449281616563 1.2379518601958093 1.0006820543684531 103 117 100 0.35463983605455801 94 755 70 765 7 996 93 939
5767 0.15975360835546043 1.5006430421201289 1.2425183271907572 86 108 92 0.68466556280621271 94 894 70 776 7 853 69 1118 91 75
5768 0.09743245525783617 1.4978575744824745 1.3272448157863139 81 65 52 0.39463904333597627 53 1043 70 780 93 966
5769 0.52450585038258768 1.756590601184256 2.0765493428366533 3 18 23 0.22166439465191243 94 990 70 791 7 1020
5770 -0.014947991931657828 1.8168686196127117 1.2738778748609012 63 53 43 1.3405812214376502 94 909 70 793 93 971 92 807 69 1240 52 788 9 663 91 571 26 352 65 361 86 234
5771 0.22234136150919165 2.2652514625882256 1.5008654167521955 27 32 15 0.55282439093522828 53 956 70 801 7 1120 94 1005 93 1054 101 284
5772 0.19954140191410569 2.3537082637568116 1.2092144932317908 82 87 80 0.51126549334482174 53 958 70 802 93 854 92 403
5773 0.65936462076555924 2.6866602997161118 2.5182949779925918 140 151 153 1.1349596016980772 94 822 70 810 101 229
5775 0.136587273508467 2.5947468115420813 1.8736024075451576 65 71 73 0.78811921374151739 94 692 70 815 101 100
5776 0.33733700073956041 2.7642685522185801 2.39539187463473 50 52 47 0.32476518154284489 94 928 70 820 7 938 101 235
5778 0.47755553663685679 3.3246022853565145 1.5690618209850804 59 131 117 0.32142190966969358 94 1019 70 825
5779 0.22234593156590593 3.3396539787453161 1.589510768948712 11 44 40 0.311658925448146 94 1020 70 831 7 957
5781 -0.1177709842902849 3.3157689750807746 1.710085202578211 8 94 65 1.1765613646768105 53 1006 103 1163 70 843 69 1276 122 999
5782 -0.1896261896230565 3.2560916953243062 1.7839442812162614 5 20 15 0.73843323231950064 103 1079 70 844 122 925 69 1189 57 1013 58 1018
5784 0.16336301552545252 1.1967978709199232 0.97568272722589 194 203 205 0.51785125140071486 94 978 70 862 7 1095 93 1039
5785 0.16336301552545252 1.1967978709199232 0.97568272722589 194 203 205 0.51785125140071486 94 979 70 863 7 1096 93 1038
5786 0.26064944643282151 1.4011890283834161 1.6388816365000238 91 103 117 0.7992736493338054 94 987 70 864 7 1182
5787 0.033890146021145318 1.9021463289393274 1.33485258806517 25 75 55 0.97075297221913126 94 793 103 1123 105 724 70 869 7 1026 93 975 102 781 57 1096 123 265 101 214
5790 0.20843007497355154 2.8246355939241234 2.0324024128930143 116 127 131 0.018754213664962716 94 932 70 886
5791 0.30963190697739695 2.874454004188423 2.2501866244977293 92 101 106 1.0386915796096363 94 1016 70 888 7 1136 93 1007 102 806 69 1330 57 1062 58 1073 92 845 52 822 8 647 91 605 68 816 84 955 51 653 65 725 86 1605 10 1039 101 397 25 510
5793 46.5208877325191 -17.557457515986162 28.030950336130914 116 72 43 1.4482462385090364 5 842 6 818 70 898
5794 0.19386069156556907 1.2256718973525114 1.0534765471102414 188 207 211 2.1267932744607827 94 1045 70 913 7 1172 93 1094 92 933 52 924 8 707
5795 0.21573995308860111 1.2226241530247528 1.0596867180570309 188 207 211 1.0044929034711563 94 1044 70 914 7 1173 93 1095
5796 0.20027518710601638 1.7448564153483619 1.1842463592435357 125 110 105 0.68096915641438893 94 1053 70 921 7 1186 69 1361
5797 0.33711534477944649 1.7491271354780411 1.8520556856276165 43 47 38 1.292955930663398 94 1056 70 923 7 1271
5798 0.62747459569871544 2.1864804488276373 1.2747409539436374 128 162 153 0.4152457718340572 94 1058 70 926 7 1188 101 486
5799 0.61338245288516247 2.1808563767006772 1.2663094454569945 128 162 153 0.42400500231785182 94 1057 70 927 7 1187 58 1150 57 1090 101 487
5800 0.60254022171375321 2.7211530954517951 2.594964576481424 130 143 154 0.50216742652468616 94 921 70 938 101 395
5803 0.0063264727791029485 1.6754374586656784 1.4935822869969062 55 48 37 1.2343995009960469 94 1055 70 962 93 1151 92 1024 8 857
5804 0.075584141894285584 1.8950661113324128 1.1433049724283637 255 252 252 0.71432789875216651 94 1136 70 964 7 1228 93 1108 8 608
5805 0.26291455075996334 1.991966526846896 2.3222518091296447 6 0 0 0.95654085565420943 53 1202 70 968 7 1235 93 1155 122 1084
5807 50.273423851202764 -3.080815248959262 11.864589676403524 193 171 121 0.74420393280498054 6 915 53 1178 94 1109 70 980 7 1251 52 997 8 913 9 947 95 454
5808 0.15753759703743064 1.2481388733662158 1.1195399666833317 72 78 64 2.3489500456577086 94 1128 70 1000 93 1183
5809 0.16679592435598667 1.5184186504661472 1.5872317614410858 69 59 47 1.2484505557600236 94 1131 70 1004 93 1208
5812 48.540968727709249 0.28806764130077489 15.42114808195938 126 136 125 1.3683372635541748 6 942 53 1222 70 1019 8 917
5813 0.27300686861598861 1.5254038037918003 1.8771693848252231 126 127 113 1.767848622278327 94 1155 70 1025 7 1317 93 1219 102 970 57 1212 58 1226 92 1071 52 1052 8 944 9 998 91 869 68 1019 65 859 86 1690 101 546 25 637 37 925 95 470
5814 0.49900504727176176 2.1168620011276396 2.2853322138633581 129 175 179 1.7232790887826457 94 1156 70 1028 7 1320
5815 0.56207753100817726 2.1434883554535258 2.3402826001044779 129 175 179 1.8319823575293528 94 1157 70 1029 7 1319 93 1220
5816 0.19311215193433134 2.5063979772677611 1.8718874791269653 15 32 40 1.5969303446374183 94 1159 70 1032 7 1300 95 442
5817 0.14307018086942375 2.8086512166186823 1.9023113739605368 13 24 18 2.1405990000732249 103 1271 70 1034 7 1303 8 951 9 1005 91 881 68 1016 51 840 85 721 84 1097 26 819 65 855 86 1675 101 522 96 586
5818 52.284868113752459 -3.8331778342904532 13.905739031345124 49 63 66 1.290113020454615 6 954 53 1241 94 1163 70 1040 7 1308 8 954 95 512
5821 0.67175696989790945 1.5437982216193347 1.0460296752425196 133 172 169 0.87767833530075079 94 1188 104 888 70 1061
5823 0.32487346936997857 1.6061570652739847 1.0203414051097095 0 0 0 2.2966691351446205 70 1063 7 1329 93 1230 102 997 57 1234 58 1246 92 1085 52 1068 8 964 91 890
5824 0.97134572044966394 2.0649857602311541 2.4285810111751158 5 15 7 0.070724865468288073 70 1067 7 1340
5825 0.27920359436951592 2.2359107122485589 2.3432792069364874 0 0 0 1.3463197313990007 7 1342 93 1232 70 1069 8 978
5827 2.2935861353947562 1.0473438059560882 1.3861697720711885 0 0 0 0.50461451595429352 94 1206 70 1080
5828 0.00070412667108174509 1.8815338523610383 1.4147399824139852 12 27 32 0.43821575066489915 53 1282 70 1081
5830 0.73216173554163888 1.6634818278461736 0.99236592662795264 19 120 87 1.5550120459849852 40 248 105 277 124 90 6 65 107 280 70 84 39 588 124 735 104 306 93 391 123 157 8 300 23 323 108 1369 115 55
5831 0.62861320858241077 3.0512831330433388 1.8191283895382386 129 120 121 1.1317529639242498 53 1238 94 1140 70 1010 117 1129 39 1036 118 1484 104 885 6 949 7 1276 93 1158 102 938 57 1205 58 1218 123 578 52 943 101 554
5832 0.44300650741529701 3.1022986537970061 1.85501667758317 4 4 6 0.69956610861552504 53 1073 103 1146 112 1308 113 534 107 839 55 808 47 670 104 738 6 647 70 824 122 984
5833 0.31869647633182041 1.2195640310909452 0.89012429311570773 233 231 223 1.5142981043998476 103 1224 94 976 70 859 110 456 75 655 41 656 114 413 33 357
5835 -0.23007402161960833 3.2858620431596863 1.9779293349444216 27 76 52 0.67137174874669403 5 202 93 590
