# 3D point list with one line of data per point:
#   POINT3D_ID, X, Y, Z, R, G, B, ERROR, TRACK[] as (IMAGE_ID, POINT2D_IDX)
# Number of points: 319, mean track length: 5.1006459679099816
703 -1.2712297256825296 1.5825741605304731 4.0020297169997843 161 162 157 1.5226293398184902 49 2110 46 1655 47 1614 45 1357 44 1223 48 1597 50 1344 68 1160 13 1305 51 589 38 1191 14 668 16 1086 39 682 18 1436 65 914 66 917 53 167 35 606 54 949 15 896 55 2157 56 1906 57 1832 37 916 34 1047 20 487 70 1224 71 451 58 817 33 739 22 341 27 703 26 662 59 773 23 378
10976 -4.9021739702462961 2.4886044892959291 2.2860795119102271 132 132 130 1.8406043733885031 73 1090 71 1463 72 956
5789 -0.88946449238704839 5.2387535515457735 2.7730508120795636 151 151 149 0.84376133285018051 15 1616 16 1638 39 901
702 0.21599417398381876 1.9799133179195205 3.1513260555719045 75 127 64 0.092998616706476092 47 1848 46 1652
5788 -0.094668167530538208 0.96238421260608498 4.3488383060053062 192 194 189 1.4990724478366226 38 1467 16 1636 42 2187 43 2276 41 949 18 2068 55 2285 54 1232 20 877
701 -0.16812816559771343 1.4479904006985473 4.2081823108560474 102 116 90 0.90656990192717879 47 1833 49 2103 46 1649 45 1579 44 1218 48 1589 50 1323 10 1265 51 582
5787 -1.1454885469613669 5.6747667940432418 2.5832684238944132 119 119 117 1.856324577269449 16 1631 17 1683 18 1642
700 0.52914491353634607 1.8207197560521851 3.2140508031995885 83 125 89 1.2925014080329646 47 1838 46 1645 11 1315
5786 -1.0399911361031231 5.7131452130349807 2.5566652420859408 120 122 119 2.0562192995175614 38 1567 16 1630 17 1909 18 1814
699 0.015991498761124611 1.7507824304396906 3.2570882133068988 124 165 107 1.2177424323778001 47 1834 46 1639 45 1559 11 1317
10972 -1.015039576919669 -0.37229196275559334 4.6004743696789649 185 184 180 0.53379129308468487 20 881 72 919
5785 -0.018047973499664183 -0.59631890088949757 4.7152270527713132 0 0 0 0.27169827027499727 14 1527 38 1462
5784 -1.2224054906153938 2.2899265694324322 3.8375494556500693 196 201 194 1.7963018650536597 14 1557 16 1600 42 2131
697 -1.123263379250669 1.1743342946253177 4.1579128984127891 210 212 207 2.0578237201603407 47 2008 46 1636 45 1337 49 2511 50 1880 68 1271 11 1526 10 1274 9 1158 36 2108 51 929 38 1540 8 1328 65 1201 66 1179 35 825 53 380 55 2384 56 2096 7 992 58 990 56 2155
10970 -1.387339832579455 -0.45057407134351712 4.5810173021207561 204 203 198 0.52772567836720596 73 1018 72 913
696 2.6642177744028439 1.3931301514051178 4.3533133681593306 183 184 186 1.8912278162171023 47 1821 46 1635 48 1585 50 1537 49 2107
695 2.7132206516146784 1.3298645415787216 4.3404348283454643 174 175 177 0.70010963877257626 49 1881 46 1634 44 1382 50 1340
694 2.6424394471899126 1.3616611717375395 4.3527824080881219 142 143 145 1.7244325835245466 46 1633 45 1329 44 1381 52 431
693 2.7615592108401259 1.2440270563583196 4.3414600431352177 140 141 143 1.3656318729773527 46 1627 45 1557 44 1376 48 1578 50 1538
5778 -1.6647140530985725 2.0910789121512354 3.823027953314623 208 210 205 1.6020376229509956 46 2038 49 2564 68 1546 39 954 65 1145 70 1443
691 0.36718253617016955 1.4459173117447006 3.1224458739913752 64 98 65 0.88105199934861178 47 1813 46 1622 48 1339 68 987 11 1295
10964 -2.7049879841700268 1.3513594268675835 3.9940252659347713 198 199 191 1.367278662350909 71 1407 16 1770 23 811 72 873
5777 -1.7141508681257602 1.7556772858663665 3.8790767626394529 199 202 195 1.9685660585902374 14 1500 16 1540 35 922 34 1333
690 0.38744143590487018 1.4036576672181682 3.1082049439820247 36 66 33 1.449389357564159 47 1588 49 1584 46 1621 45 1549 44 1366 48 1335 68 986 11 1294 12 1312 9 833
10963 -2.3090792874886823 1.5240387405539677 3.9275702420300229 0 0 0 1.3394490462244009 40 1190 73 1189
5776 -2.5145045121765364 4.1081681161121741 2.9620063787526019 164 165 160 0.22983198206860592 15 1452 16 1514
689 -2.1282102917637324 -0.087868410447341533 4.4174585101478181 189 190 185 1.5196798237594404 47 1985 46 1617 48 1760 49 2062 50 1492 13 1510 51 695 52 670 14 1151 25 687
5775 -1.2335136762285823 -1.1936739515895556 4.6206598353296355 180 180 178 2.0921426895522743 15 1440 37 1167 16 1511
688 -2.327523444659406 -0.32374628684065265 4.4617283517187172 220 221 215 1.1184203231909471 47 1981 46 1616 49 2468 45 1546 48 1755 51 804
10961 -3.0284461890211261 1.5101341562554549 3.8778387188764434 224 225 217 0.89917284617704352 73 1176 71 1394 72 688
687 -0.052956544321686796 -0.53103317912706138 4.7234192116584346 191 193 188 1.7277915590789905 47 1974 46 1615 45 1545 48 1546 49 2059 50 1487 36 1832 51 686
5773 -2.892955350595888 1.7368556682328331 3.8374912731562203 197 200 191 1.4803253559213492 15 1427 16 1493 17 1837
686 -2.6523273346856615 -0.62379971429288117 4.3795395187645889 170 172 167 1.6920558847939542 47 1794 49 2244 46 1614 45 1544 44 1367 48 1543 14 1123
685 0.41378007050555626 1.142799407559105 2.5529270996332465 43 68 39 1.6951139487133229 47 1798 46 1611 45 1531 48 1562 10 865
684 0.038688283425262024 -0.69569295336851666 4.6318920859244965 184 185 179 1.5482136797396031 47 1789 46 1610 49 2054 45 1540 44 1362 50 1484 36 1826 51 568 52 662
683 -1.1513754473298392 -1.1614882197963075 4.5190293316278067 167 169 166 2.1023949111255154 47 1961 49 2041 46 1607 45 1537 44 1359 48 1736
682 -1.1513754473298392 -1.1614882197963075 4.5190293316278067 167 169 166 2.1023949111255154 47 1962 49 2042 46 1606 45 1536 44 1358 48 1735
681 -1.2622279571978317 -1.152497080278579 4.4691300984965787 165 166 161 1.2140195336031245 47 1784 46 1605 45 1535 44 1357 48 1533
5767 1.0379126875553963 4.4514639653033177 3.1489890233299742 158 159 153 1.420324975344845 15 1331 16 1430 39 594
680 -1.33126406629293 -1.1674344957276022 4.4380985634364496 169 170 165 1.7697350109448107 47 1576 46 1604 45 1534 44 1355 48 1531
10953 -3.9690613082090129 2.14311289480912 3.4297126786390795 177 178 172 1.9370910092213733 73 947 71 1367 72 847
679 -1.3345442110318699 -1.1732524905147739 4.4435902140371129 169 170 165 2.2402202654280843 47 1575 49 1798 46 1603 45 1533 44 1356 48 1530
678 -2.4263373045987651 -1.1495939054663904 4.2014031218944154 134 135 127 2.2049386470806591 49 2033 46 1602 45 1528
677 -2.4638823608560068 -1.201858505077275 4.0185318857206074 169 171 160 1.4543080649904967 47 1780 46 1598 45 1527 48 1525
10950 -4.562841204311658 1.505682189972064 3.2985198198222578 165 166 161 1.8427521096257533 73 1126 71 1362
5763 -0.39733909047866461 3.7882352029939343 3.4362242754993968 178 179 174 1.5959438747725954 48 1713 33 806 32 682 31 639
676 -2.4853514781312631 -2.3422677373794989 4.1985448861410015 147 148 150 1.1161190951000117 47 1762 46 1588
675 -2.8737688185552064 -2.2244554479719132 3.8314115387076546 195 197 196 1.4137206914685134 47 1759 46 1584
10948 -3.7159595921015578 2.9480928594083888 3.1748144387924562 166 167 162 0.87041915693138117 71 1360 72 844 73 1152
674 0.65982648573579517 3.7511059194797713 3.4910721940576273 164 165 167 1.7184827049217455 47 1753 49 1769 45 1487 44 1328 48 1505 50 1244 10 1011 9 938 38 547 52 395 16 1200 39 369 42 1293 43 1703 40 424 17 1268 18 1220 8 995
10947 -3.6609085768466914 3.1062173025442159 3.0780586311548555 163 164 159 0.95911648911415215 71 1359 72 843 73 1142
5760 -1.1816114602720014 5.7551428864471941 2.5756081623720974 119 119 117 1.851293491734701 38 1199 16 1366 17 1448
673 -0.58651310251807687 3.4890243479749716 3.5453907550742083 164 164 162 1.581423833908306 47 1747 46 1570 45 1486 44 1488 48 1498 50 1238 68 1099 13 1426 11 1213 10 1021 12 931 9 1091 14 765 15 713 16 935 8 1155 66 688 34 939 67 348 6 757 5 559 4 405
10946 -4.5874399771965759 1.6396292643719388 3.1560417117090269 146 148 143 1.920294264516383 73 1125 71 1357 72 833
672 -1.2273625174086515 3.4552830810834969 3.4466500824249011 155 157 154 2.1958142088929162 47 1750 46 1569 45 1484 50 1237 11 1225 10 1214 13 1139 52 384 14 461 8 1169
5758 0.10192691847633326 -0.88493791017039147 4.5007361613382031 207 207 205 2.0641101667718753 14 1186 13 1768 35 672 34 1163 15 1516
671 -1.1882452160013934 3.3915595215180052 3.4931335658550458 185 187 184 0.94665421515289394 47 1534 46 1568 45 1485 44 1487 48 1494 11 978 12 928
5757 -1.4523514458189639 1.8967192807776276 3.8948825353001082 197 199 194 0.36601124378031641 15 1208 16 1309 39 696 19 1006
670 -1.4102675668792797 3.2813719220234701 3.4699415404026608 156 158 155 1.7469161585576736 47 1524 46 1563 45 1261 44 1150 48 1230 50 1223 52 497 65 492 29 74 68 964
10943 -4.6988783383014257 1.8177657275743218 2.9833103825528897 189 190 185 1.854617777830307 73 1110 71 1352 72 821
668 0.56215493569359654 3.4446642085902499 3.7500187756123768 124 131 115 1.2562767036446194 46 1558 45 1472 44 1477 68 1080 11 1196 10 1000 9 744 8 777 66 664 67 111 31 439 32 485 1 214
667 0.50809420173368947 3.4578210357400732 3.7074420094572984 161 170 165 2.0406475010675149 47 1932 49 2012 45 1684 48 1492 68 942 51 667 38 786
10940 -4.6272110197660812 2.1924922254978974 2.9744078457407239 181 182 177 0.91952178451490652 73 929 71 1349 72 820
5753 -0.94662184295510465 0.011944323642730629 4.4907929359419061 181 181 179 1.5580463926169155 38 1155 16 1301 42 1532 43 1933
666 0.45951059291176632 3.3031524303785509 3.8159895388503497 101 116 90 1.466367718645982 47 1724 46 1555 48 1227 11 1194
10939 -4.1374591596409722 3.04460018457624 2.9223304422004053 193 194 188 1.5927934837881035 73 1137 72 831 74 675 75 656 71 1347
665 -1.6276088834572076 2.9986039463263605 3.498487153467928 148 150 145 1.443617483342656 49 1351 46 1552 45 1459 44 1305 13 714
5750 -1.9506845145435658 -1.1519702595143799 4.4608338212739413 181 182 176 0.38682655982814484 15 1123 16 1253
663 0.38856697636823717 3.1807581315391307 3.886190723314515 161 169 165 1.5092697420611496 47 1922 46 1550 45 1455 68 932 13 1453 11 1186 14 1047
5749 -2.2519808981620235 -2.1022151910421427 4.798192661498212 189 190 192 2.2971868591365325 38 1259 16 1241
662 -0.43016091119349659 3.0514721713755595 3.7420387228220546 184 186 183 1.0188764877564029 47 1711 46 1545 44 1309 48 1479 11 1182 12 1189
661 0.38154663265630639 3.018996659593951 3.8539334671257759 88 126 75 1.6516382276118093 47 1480 46 1542 45 1446 48 897 11 1174 10 980 68 1068 12 427 9 1067 8 1245 7 926
660 0.35210845928320833 3.0720557824920065 3.9176050616159381 80 89 68 1.2932409646364584 47 1703 46 1541 45 1667 44 1303 68 1070 48 1473 13 1210 11 1184 10 982 12 1192 9 719 8 744 7 553 67 243 6 465 5 353
659 0.26311662801901226 2.9770929026869495 3.9143190204412761 86 93 77 1.1574560229514872 47 1701 46 1540 45 1444 48 1211 68 924 13 1445 11 1172 10 744 12 881 9 920
10932 -4.7437244105546847 2.3493036095423152 2.6203615490241283 135 135 133 1.382706460655208 73 1099 71 1334 72 803
658 -1.3341188324860118 2.8728589756359764 3.6465916296609375 196 198 193 1.064859740866043 47 1708 49 1985 46 1538 45 1448 44 1297 48 1468 50 1201 68 1224 13 1103 14 948 66 709 48 1205 34 961
10931 -4.9151313902993277 2.1138628375266282 2.4661279651271224 224 225 215 0.62219143412206823 73 907 71 1327
657 -1.3409992485354008 2.8453567489120095 3.654006591868582 155 157 152 1.1248224186974141 47 1914 46 1537 45 1222 44 1296 68 1223
5743 -2.8449641340311982 -0.69814879628433624 4.2948305650602698 186 188 185 2.5872487936220492 15 1085 16 1223 17 1616
656 -0.051054374336726022 2.861502264151317 3.8515986070698514 97 101 87 1.6096256840968439 47 1696 46 1529 45 1434 48 1674 68 923 13 1427 10 740 9 717 51 541 16 1400 7 302 6 260 6 645
5742 0.67376172471916984 3.7442947933654112 3.5062737871346363 135 137 134 0.64213914669376704 14 1058 16 1201 18 1502
655 0.46380585440554128 2.8454007649900697 3.7466194622243658 32 66 29 1.3102590306766648 49 1338 46 1523 48 1201 50 918 68 672 11 1396
10928 -4.901316884311993 2.7275871028899976 2.2143882003880435 147 148 143 1.6791596766248558 73 1281 72 954
5741 1.0918495566503812 0.5595354390922076 4.5961582911754304 192 194 193 0.67111086627188765 15 747 16 1199
654 0.37110120513144579 2.79702290731736 3.6450041171391789 51 82 38 0.41329937003817308 47 1455 46 1519 45 1424 11 1161
10927 -4.8506653503539718 2.8086164306768229 2.2730826826575714 199 200 194 2.0598885275776304 71 1317 72 955 75 617 73 1089
5740 0.48588906740851856 1.9064598467643123 3.1623848451506045 22 73 14 0.89551798109444292 10 1099 39 492 40 450 17 1511 18 1469 73 587 71 32
653 0.0236177927729566 2.5202045982673607 3.9865582556380947 87 94 76 1.0401115237135934 47 1684 49 1679 46 1516 45 1418 44 1278 48 1173 68 893 10 957 12 837 9 903 8 950 7 703 67 240 66 482 6 726
5739 -0.16982895794516781 0.87353471722461973 4.3591013958896161 188 190 187 1.1072516404343351 49 1851 16 1156 43 1677 66 766
652 -0.32560374832517935 2.524716828643184 3.8812567384535361 175 179 164 1.9627569425379647 49 1954 46 1515 50 1179 9 1065 15 438 8 1115 68 1196 35 501 7 820 34 934 57 1618 67 335 6 815 58 668 25 280 33 656 27 529 26 520 59 700 2 316 3 381 60 819 64 266 2 360 28 281 29 274 63 246
5738 -0.18905408689347444 0.90547540102545077 4.3515863660585525 189 191 188 1.5095284235405262 15 952 16 1140 42 1258 43 1676 55 1830 56 1652 19 858
651 -0.095277864409025317 2.4269960364418819 3.9720722696947801 76 88 64 1.2992272616953895 47 1674 46 1510 44 1436 48 1164 68 892 11 1157 12 1144 8 691 66 480
10924 -5.0629552972618814 2.9107638857125697 1.8129319101855947 196 197 192 1.1576652415940669 73 890 71 1307 74 369 75 428
5736 -0.37177243259101828 0.49941308667280726 4.3677676060656934 170 172 169 1.3777813254120848 15 661 16 1128 42 1252 43 1667 17 1227
649 -1.9828046153380674 2.13822462581915 3.7437342950238737 217 219 214 2.1670573585962711 47 1663 46 1503 48 1421
10922 -5.1761256024070548 2.7701605049002374 1.6930765717900049 173 174 169 0.6080021871766208 73 1070 71 1299
5735 0.44646312018918588 1.1448517248522243 2.5850423061891794 51 79 48 0.44127950358909634 14 896 16 1089
648 -1.9747304551872438 2.1416985693209427 3.7313145254770257 217 219 214 1.1990700654515896 47 1662 49 1941 48 1420 50 1388 15 624 14 884 16 881 65 1050 35 637
5734 -1.6592335563318812 2.1262949950482919 3.8131142721348574 187 192 186 0.78162548406561994 15 877 16 1073 42 1482
647 -2.1464865194920657 2.0185138813816392 3.7720151022947137 172 174 171 2.1126406862716482 47 1886 46 1500 49 2147 45 1392 48 1830 50 1566 68 1203 13 1526 36 1717 52 715 51 733 37 992 38 1250 14 1179 15 1157 16 1277 39 720 66 950 53 280
5733 -1.4151285714926782 -1.2038828846378133 4.5434470126499802 185 186 181 0.3797636066115927 15 845 16 1056
646 0.42851660366804933 2.5219692243224414 3.3581175892442383 50 79 48 1.0022131885323973 47 1671 46 1498 45 1390 44 1236 11 1139 10 940
645 0.31383158228148972 2.4806163604451097 3.3389651206122042 33 76 22 1.3235853749876163 47 1667 46 1493 48 1167 49 1682 50 903 68 1171 10 1130 12 1137 8 1220
5731 -2.6320851564951648 -0.71892724014101572 4.4075858204284071 0 0 0 2.687174526913104 15 1103 51 681
644 -0.39796003585337192 2.1162526578488432 3.9826561381081804 148 155 139 1.1652194127270186 47 1656 46 1491 45 1405 68 1035 13 1123 10 1138
5730 -2.0412854657979351 -1.3408360962003896 3.8734717422934688 189 191 190 2.1444124879990696 15 821 16 1037
643 -0.39736194548190201 2.1196094581452778 3.9747057676649562 148 155 139 0.93702826903766412 47 1655 46 1490 45 1404 44 1251 48 1415 68 1034 10 1137 12 792
10916 -0.25105818158195242 1.2003906369831054 4.2861584045266214 0 0 0 0.97456940419443583 42 1883 43 1974
642 -1.3721562452428819 1.9273172112478794 3.9018662511742446 153 155 150 1.2789734051581563 47 1652 49 1916 46 1481 45 1383 44 1245 48 1392 50 1375 68 1042 13 1031 66 826 35 423 34 956 67 430 33 749
10915 -2.3314466985378952 0.42946729906437586 4.2426889109668675 218 220 209 1.1639279649247307 19 1257 71 1254 70 1845 25 865
641 -1.3721057740006493 1.9272338927050194 3.9023309798543164 153 155 150 1.2462544743316195 47 1651 46 1480 49 1915 45 1384 44 1244 48 1393 50 1374 68 1043 13 1030 66 827 65 671 35 422 34 955 67 429 33 748 27 310 59 504
10913 -1.7962306783110249 0.95230308757936222 4.1629294276132853 218 220 209 0.57249513157758958 43 1881 71 1251 21 693
5726 1.1873573980148202 4.2286354184144628 3.2639971920092403 156 156 154 1.9607600922722506 15 790 16 1003 39 363
639 -2.0326141510743061 1.8723642650520238 3.8339731917326323 195 197 192 0.98208612931305073 47 1647 49 1910 46 1476 45 1379 44 1257 48 1387 50 1136 68 1053 13 1009 36 1276 51 486 52 443 37 564 38 655 65 946 66 942 35 531 55 1848 54 827 57 1589 67 351 70 753 26 473
10912 -2.2010098585664322 1.2047396467805298 3.9998845394048819 185 186 180 0.94189988723745821 70 1834 71 1241
5724 1.4049651327231554 -0.33095250421519851 4.749394773083254 142 141 146 2.2404490854716985 15 492 16 975 14 752 18 1308 19 958 17 1009
637 -2.2262328676746548 1.9155732467301707 3.7771683005343313 175 176 171 1.524367957941688 47 1400 49 2132 46 1474 45 1145 48 1616 50 1563 68 1201 13 1525 36 1714 51 608 37 990 38 929 39 728 66 1053 35 539
5723 0.9397790687639378 0.95279894446203939 4.3994838526920077 159 161 160 1.5613476325444622 15 487 16 968 17 1284 19 669 73 629
636 -0.19238692021523165 2.0178726247292533 4.0226501052448542 87 96 77 1.2988736097901259 47 1643 46 1469 48 1126 50 1160 68 865 11 1135 10 938 9 884 36 1187 52 341 8 933 35 295 55 1529 56 1375 57 1337 7 525 58 300 26 302 27 64
10909 1.3092371239537965 3.930003509902007 3.4465349511639989 0 0 0 2.2676645441203425 16 1923 73 1242
5722 0.54816395219341019 1.1370572831961994 4.3752750366311552 191 196 192 1.0724111166337063 15 735 16 956 19 880
635 -1.7298368740285639 1.8213179511830582 3.8621761655783042 191 192 186 1.2138813406013376 47 1864 49 1902 46 1467 45 1380 48 1618 65 825 66 837 67 432
5720 0.50197878548814157 2.3354604081550985 3.3009755490099431 56 92 56 1.7356250855272215 15 458 16 950 17 881 18 1209
633 0.28878799426564333 2.3159107704422124 3.2031952423775296 79 116 65 1.3378122938754513 47 1411 46 1462 45 1121 48 831 50 890 68 850 11 1122 10 924 12 773 9 610 8 910 66 86 7 669 67 207 6 592 5 312 4 123
5719 0.44167134382779705 2.5147492468299935 3.374829372001563 51 77 48 1.4696867309265333 15 1006 16 948
632 -0.09912704097631013 1.7577432898212206 4.2008688731875692 34 69 18 0.054930399036147715 47 1372 11 798
630 -1.5454603237320697 1.6925599422708295 3.9333730050488533 194 195 190 1.4354476668680569 47 1625 46 1457 45 1126 44 1035 48 1100 46 1225 68 1031 56 1668
5716 0.37160477195684904 1.4158579275885275 3.1018977215614716 22 54 19 0.61439731626957239 15 933 16 906
629 -1.5660950598386085 1.5934763090495072 3.956363889268288 196 197 191 1.0292258194052344 47 1612 49 1886 46 1456 45 1125 48 1367 50 1342 36 1466 55 1984 56 1764 57 1583 58 696
5715 -1.3860558258715447 -1.281630833717869 4.3298319251178983 181 181 179 1.2235040101167458 15 605 16 865
628 0.064284384489952523 2.0648519518245827 3.2508009535139091 102 143 85 1.7128082168171335 47 1628 46 1451 11 1109 12 711
5714 -1.5580243509118794 -1.3159756100335591 4.2750505587792933 184 185 179 1.41018359735149 15 602 16 852
627 -0.81249521489456766 1.615661345232301 4.0486067399203058 160 163 154 1.6701611802102558 47 1615 49 1890 46 1449 45 1361 48 1371 50 1347 11 1106 10 918 12 1099 9 1029 36 1432 51 472 52 437 14 939 18 1456 8 1091 65 778 66 805 55 1859 56 1677 7 803 34 941 6 732 58 611 24 328 70 777 33 658 32 580
10900 -4.589816786019087 1.6213751354187669 3.0920307876792061 207 210 200 1.7229313770496322 71 1162 72 649 73 931
626 -1.3379483029806714 1.5158103166143244 4.0005593117064935 158 160 155 0.65041119625102328 47 1613 46 1448 45 1356
10899 -4.589816786019087 1.6213751354187669 3.0920307876792061 207 210 200 1.7229313770496322 71 1161 72 648 73 930
625 -2.2239605282663617 1.4725573773089613 3.9268697503095003 208 209 203 1.6777249978534408 47 1611 49 2097 45 1352 44 1226 48 1355 68 1173 46 1447 66 1045
10898 -4.7062018646163999 1.9478938509278141 2.9325065369864793 162 163 158 0.16407161271836848 73 763 71 1160
624 1.9363454870795456 1.7221009814060351 4.3245701783716211 170 174 177 1.2998060765395618 47 1841 46 1446 44 1028
10897 -4.7062018646163928 1.9478938509278103 2.9325065369864785 162 163 158 0.16407161271848372 73 762 71 1159
5709 1.3944715300976163 3.6863108968603053 3.5928793052260732 166 167 162 1.9573931968874401 15 792 16 798 41 446 17 996
622 -1.8635837952669385 1.1930996605552502 4.0881572450988424 215 216 211 1.4319259359119234 47 1822 49 2086 46 1437 48 1343 50 1514 13 1286 36 1690 51 580 52 531 37 747 38 903 14 653 15 861 16 877 16 1065 18 1428 65 1045 66 1026 35 627 53 162 55 2115 54 925 57 1800 70 999 25 519
5708 1.1220831844544663 4.2225640735728067 3.2886796249552925 119 119 117 1.724833991626908 15 786 16 788
621 2.5650147697243639 1.2718945008978377 4.3532142198469437 139 143 144 1.7253791845523472 47 1814 49 1879 45 1328 46 1427 44 1380 48 1341 50 1336 51 467 52 547
5707 1.1055253733666162 4.3034639649511224 3.2032856897319846 172 172 170 0.25917843359117937 15 554 39 254
619 0.34458365999980167 1.4381823873007957 3.103268048431969 8 49 5 1.5305706655609792 47 1812 46 1417 45 1548 44 1368 48 1338 12 1037 9 832 8 868
618 0.37110658006034564 1.142263174332679 2.5301110498938515 37 64 29 0.62677903225390386 47 1583 46 1416 48 1323
10891 -3.9727709609665474 3.4255531600804696 2.8115552675783952 188 189 184 1.6397972314962341 73 942 71 1152 72 654
617 -2.4787304901670875 -1.1701116306878183 4.2400304661461279 157 159 148 0.72906085321680336 47 1573 46 1413 44 1354 48 1528
10890 -3.9727709609665474 3.4255531600804696 2.8115552675783952 188 189 184 1.6397972314962341 73 943 71 1151 72 655
616 0.46087591340345668 0.93772976454005796 2.2208525336788156 55 79 53 1.0236651728838355 47 1579 46 1412 44 1162 11 1050 10 569
10889 -4.7248921959762207 2.1082666758018869 2.8146583402569099 152 153 148 1.5995098802928851 73 919 71 1146 72 635
10888 -4.2853364952425821 3.0025104183091824 2.7346100236325146 189 191 188 1.2382850326100721 73 935 71 1138 72 639 75 480
5701 0.45754789454021927 3.9999416593770301 3.4152087253474845 147 149 146 1.7038554689936798 16 728 6 647 3 250 2 234 13 1234
614 -2.0692362845815433 -1.3335631016151792 3.8244959805939756 200 202 201 0.62180950817560265 47 1564 46 1410 48 1289
613 -0.31711581833403946 3.7350494412323081 3.4725572779189022 161 161 159 1.5092437632447391 49 1763 48 1262 50 993 11 622 10 839 12 559 9 954 36 154 15 172 66 516 5 384
5697 0.38810996305198642 2.2003105550343864 3.1695347097214288 82 123 77 0.84365159260098499 13 1151 14 490 16 658 42 132 17 119
610 0.80207368830348535 3.6372606169742618 3.5949051538647545 186 188 187 1.917437907740881 49 1432 46 1385 48 966 11 577 10 407 12 529 9 429
609 0.57149233141776223 3.5543494728018179 3.6378205026628727 177 182 178 1.3858147238796141 47 1530 46 1384 49 1431 45 1275 44 959 48 956 50 974 68 740 13 1222 11 575 12 933 9 456 36 740 51 301 52 285 38 557 14 579 15 774
608 -1.4933642419152466 3.2733739503014583 3.4219530134068883 185 186 184 1.8931445194921477 47 1523 46 1380 45 1259 48 1239 50 947 13 764
5694 -0.18329404267606464 0.44157734891180084 4.3998031317428818 173 175 172 1.2635821964697591 15 403 16 639 42 1037 43 1079
607 0.52771327529580525 3.4813994121604419 3.6992525098205218 175 182 175 1.8433536977363492 47 1527 46 1379 44 1137 45 1471 50 971 68 728 11 963 52 146
5693 -1.505078557564542 -1.3692003177989147 4.1220306582955093 157 158 153 2.123244643267804 15 11 16 578 35 415
606 -1.7510035294472945 3.1079906481479966 3.4112932529800464 188 193 187 1.7613367026101043 47 1510 45 1249 50 456 49 667 36 370 52 275 65 541 56 1070 68 963
5692 -2.4529667268246858 -1.184471755398264 4.2695807552816403 176 177 169 0.61206653378911779 15 591 16 567
605 -0.407174137635119 3.2536004663188596 3.6747298462709819 170 172 169 1.840290676173101 47 1731 46 1367 48 1488 68 1089 11 962 9 942
5691 -1.9805223925769304 -1.3269344802767717 3.88067040476056 176 177 177 2.9016349596625948 15 334 16 561 35 431
604 -1.6639727061993874 3.037422435267255 3.4542661659717462 194 197 191 1.0441947530958471 47 1493 46 1360
603 -1.7349193402464789 3.1001236096662437 3.4163361462184723 177 179 174 1.4946914559939433 47 1176 49 669 50 934 65 540 55 1216 56 1395 34 418
5689 0.76559235185936081 3.7872974289607764 3.4978791071638891 149 151 150 1.6945343322502093 15 270 16 359 42 767
602 -1.7396556129820626 3.0840590900266629 3.4207627941977159 196 198 193 1.2035680861522731 47 1511 46 1357 48 1217 50 1215 36 925 65 694 56 1394
5687 0.49990906649797118 3.0964934395189334 3.8628073864519297 23 66 21 0.72303977328532498 15 235 16 300 18 202 19 82
600 -1.5495447702458194 2.9032968773481489 3.5721565960443824 183 185 180 0.64961235164428954 47 1484 46 1348 45 1230 44 1306
10873 -5.0740805653419283 3.0792811503771298 1.6992454743882175 196 197 192 1.392896399957638 73 889 71 1072 74 364
5686 0.57763846320693968 2.0173107668480279 3.2521862432969884 64 102 64 1.8171905545690861 15 453 16 176 14 750 40 353 41 592 17 882 19 559 39 384
599 -0.16182299293710081 2.9788059346467999 3.7913125261424736 192 194 189 1.2171003772283753 47 1140 46 1344 45 945 44 1124 11 499 10 762 9 742 14 527 13 1190 15 730 16 674
5685 0.53366373499556841 2.1508469416597298 3.2098821971040818 56 93 59 1.1538086984594298 15 143 46 171 16 175
598 -0.86908176027848061 2.8755198822221519 3.7222872066621715 165 167 164 1.1678960910285785 47 1476 46 1342 45 1223 44 1120 48 1208 68 939 13 810 11 930 10 777 12 877
5684 0.4551173500796552 2.1715225040061048 3.1824428139615288 52 91 49 1.2738908397334732 13 254 15 142 16 173 18 84 17 120
597 -1.2146309852235955 2.8879293600879512 3.6419009648688823 197 198 193 1.152915681714157 47 1488 11 926 10 775 12 873 9 939
10870 -0.90896939484870265 -0.74151648823155414 4.7302285435921387 214 214 206 2.2020526539934853 73 698 71 1046
5683 -0.18331685985067547 2.9718337943099256 3.7944366555562574 165 170 166 0.92101551673332116 13 362 15 155 16 170 17 114
596 -1.2047638221105135 2.8711134415809267 3.6605316781816351 199 200 195 0.77886088051758862 47 1134 46 1340 48 893
10869 -0.9792998412662528 -0.47791319858824405 4.6115915798312166 0 0 0 1.2914272960648105 18 1684 73 830
5682 0.5490499394331293 1.5016184541872808 3.3058055716194397 22 70 22 1.1996489090691043 14 128 15 135 16 159 43 1064 17 132 18 770 73 59
595 -1.4080646563498147 2.8670202165869529 3.6385896845852739 185 187 182 0.42027475120637064 47 1487 46 1337 44 1115
5681 -0.057945269594463063 0.96552254231758339 4.3481188807212821 171 176 172 1.3104031930315196 50 188 16 142 43 712 42 183 17 163 18 167 20 123 21 79 56 213
594 -1.386843502831357 2.8730491684176322 3.5804120342435595 185 187 182 0.43656833331575612 47 1486 12 409
593 -1.6896013990787668 2.784453549413795 3.5660980763397201 164 166 163 0.67696425070600563 47 1472 46 1335 45 1217 44 1114 48 1204
5679 -0.27828722512683984 0.82201138669458196 4.3589802756700946 176 178 175 1.1175015511282471 38 120 16 119 42 163 43 170 18 141 19 113 20 118
592 0.36449263744537275 2.9607292479478593 3.8150722202986578 82 118 68 1.2057390349150339 47 1124 46 1334 45 1214 48 441 50 450 68 912 11 474 10 742 12 424 9 914
10865 -0.45479032839856026 1.1597605319926603 4.2311334450713813 163 165 162 0.54522402996833608 42 1553 71 1022 22 416
5678 0.43531612977029183 1.4619041636413233 3.1806677987893157 17 65 13 1.9881147450551655 15 415 16 114 18 754 73 297 42 127
591 -0.51459013048648017 2.7573192398131727 3.7935787997988935 183 188 182 1.1180607444304258 47 1466 49 1302 46 1330 45 923 44 1093 48 410 50 913 68 917 11 910 10 729 12 381 9 367 7 582 8 766
10864 -0.45596685255402897 1.1590917528116427 4.2321340040886275 163 165 162 1.7621120155351147 42 1552 57 1687 58 827 71 1021 25 680
590 -1.0323830017515179 2.7081570131574146 3.7682317319503382 152 154 151 1.5264386796066507 47 1462 46 1329 45 1200 44 1102 50 899 49 1298 68 1073 13 769 11 1165 10 757 12 849 9 927 36 832 52 361 14 442 16 623 8 800 66 540 7 743 6 669 33 585
10863 -1.3596019504584429 0.63061292590733797 4.2874030412019266 177 178 173 0.62631160424701904 20 725 71 1017 21 534 23 591
5676 -2.1867164743965106 -1.5341095175500432 4.2505085382466312 218 218 218 0.15424133749944841 38 441 16 10
589 -1.5033766515148028 2.6198465856296753 3.7147173601336911 194 196 193 1.758123070599116 49 1687 46 1328 45 1198 44 1101 48 1181 50 1185 13 716 14 56 66 843 65 680
10862 -2.2622086832262776 0.34909027222079086 4.2653541743833099 176 175 170 1.288416768439244 36 1708 70 1488 71 1012
5675 0.15407653714837644 2.0343698128021748 4.1746648064930874 22 60 21 0.16572321524439126 14 2451 15 2517
588 0.090735191499414489 2.8028733350548989 3.9189153934025436 117 121 106 1.21835859633789 47 1470 46 1321 45 1211 48 1197 13 1191 11 1162 10 970 12 860 8 739
587 -0.061307228740154526 2.5302521828497708 3.9570165644230446 79 88 67 0.76383722630936235 47 1446 46 1317 45 1417 44 1277 12 352
5673 0.41134142859887335 1.2707405103273048 4.3362034385455805 178 180 177 0.97883027259664901 40 1604 41 1760 27 896
586 -0.3033921305985533 2.5329244109090561 3.8809865465104734 99 103 89 1.5897662143882436 47 1682 46 1314 45 1179 45 1414 44 1275 48 1443 68 1056 13 1158 13 1400 11 879 10 969 12 1148 9 902 36 1195 51 527 14 505 15 719 8 966 34 803 67 252 6 629 5 366 33 564 4 207 32 578 31 457 3 261 2 255 1 235
10859 -0.78466389223629684 2.0429529946620524 3.9544933969126075 125 131 121 0.88298757317721999 70 1451 71 984 72 730 20 848 23 567 24 683 25 649 26 710 27 747 22 400
585 -0.34761735323667875 2.5295882884705074 3.8945120013208951 156 160 146 1.5274504874336301 47 1085 46 1313 45 891 44 826 48 846 50 886 68 666 13 829 9 319 36 795 34 556
584 -0.59347678473701915 2.5531823465509627 3.8584515391302547 204 209 203 0.60847316047564903 47 1441 46 1310 45 1188 11 891 12 339
583 -0.090097675501688193 2.4030565987092505 3.9823773506110065 80 92 68 1.1874252735150381 47 1431 46 1302 45 871 44 1079 48 1163 68 656 11 862 10 237 12 814 9 655
5669 -0.69602296101018724 -0.65005476186144195 4.7743543299688396 184 183 179 0.49289890932725677 15 2080 16 2043
582 -0.10479527175934431 2.3936679353363948 3.9761522293025262 114 124 100 1.3515760238781525 47 1072 46 1301 45 1166 44 1078 68 654 11 861 12 313 55 575 27 51
5668 -3.9590385128697729 2.87128584882413 3.4709590377710495 185 186 178 1.6334618079313463 14 1986 15 2027
581 -0.47197433264990091 2.3498904908566396 3.9248095460763874 172 175 164 1.7721891229379676 49 1666 46 1300 45 1411 48 835 50 1171 13 1122 11 1156 10 1146 36 1197 14 464 8 1113 66 673 5 468 5 548
580 -0.73898799884567079 2.3830583693246021 3.8870516067718701 142 147 140 1.0187784437279088 47 1426 46 1299 45 885 44 319 48 1158 50 1170 11 873 10 712 12 306 9 693 15 406 8 976
5666 0.87471465036946172 4.7963861475655394 3.002091364328296 114 114 112 2.6394685447035311 14 1935 15 1947
579 -1.397349521881013 2.2755319482049288 3.8276956294859152 161 163 158 0.88854880317651963 49 1662 46 1295 45 1176 50 1165 68 1060 36 851 65 674 55 1528 56 1368
10852 -1.8120259139979344 1.7078228418513668 3.8685521824215323 214 216 205 2.0623019642035132 20 688 71 967 72 513 21 491
5665 -3.1115231278907531 4.1655873363965874 2.9048483109257131 147 148 140 1.1747773317584838 15 1784 16 1775
578 0.29098023461304645 2.5026051041114421 3.3860793086577154 32 77 18 1.1373836581209154 47 1421 46 1291 45 1389 44 1235 48 852 49 1283 68 868 11 843 10 939 12 794 9 887 8 1086 7 799 67 312 6 706 5 433 6 596
10851 -2.0572034035270437 1.9217781619597281 3.8227210696511964 174 177 170 1.5496171128940555 20 812 21 593 73 983 71 955 23 700 72 697
5664 -3.144909552171832 4.1822756472205684 2.9262857482455344 147 148 140 2.0750577619202688 15 1783 16 1774 17 1828 18 1771
577 -0.32473752591758343 2.3394929881211111 3.9221671416800898 155 159 145 1.7905752444381637 47 1430 46 1290 11 859 10 693 8 947 34 933 67 239 6 628
10850 -2.1206022902002695 2.0299297594477101 3.7974946313486106 217 218 212 1.319860762034786 20 673 70 1203 25 496 71 954
576 -1.9501488888889957 2.1048312356412833 3.76048451595832 221 223 218 1.7037205420782513 49 1933 48 1423 50 1386 52 576 65 942 66 1047 44 300 54 971 57 1724 20 468 67 507 15 626 26 658 22 268 23 434 28 339
5662 -1.0359415294799106 -1.599596302969998 4.2433912999107486 182 182 182 3.1280746427679897 47 1957 15 1761
575 -1.950346429575305 2.1052041503501426 3.7590912297461432 221 223 218 1.4624471859026924 49 1932 46 1285 48 1422 50 1387 52 577 65 941 44 299 66 1048 54 972 57 1725 22 269
10848 -0.43740683978508932 3.7773025568128622 3.3940472097906191 196 198 193 0.14930565075994245 20 818 56 1987
574 -1.9720468031857485 2.0889522008174621 3.7654074117162324 177 179 174 1.4577113881503689 47 1661 49 2150 46 1284 44 794 48 1419 50 1581 68 1205 13 1016 36 1492 51 629 52 575 37 978 38 922 14 656 15 625 65 940 66 948 35 533 54 970 67 506 71 666 70 1200 26 594 27 632 39 721 25 366
573 0.45472420254240908 2.5070825355232933 3.3638824274871717 65 94 63 0.87518979497044602 47 1422 46 1277 45 1143 44 1237 11 1138 12 1140
572 -0.57284402686750913 2.0485981930417529 3.9865458508020724 151 157 145 1.1483830924160676 47 1000 49 1222 46 1274 45 1155 44 757 48 808 13 773 11 319 10 670 12 791 36 801 51 255 14 443 8 686 65 136 67 237 5 362 33 382 4 324
5657 -1.9861944609630642 -1.3590894638330442 4.1559334532092436 148 149 144 0.077982857589683013 37 1746 15 1713
570 -1.020457271857921 2.0768656610146383 3.9163652042839514 141 144 137 0.73344672045601644 47 1405 46 1268 68 642 45 839 10 229
569 -1.2827499801631219 1.9390875604386759 3.914614095926515 143 145 140 1.4270263515037271 47 1404 46 1267 45 817 44 1049 48 1396 49 1919 68 1185 66 925 67 421 33 741
5655 -1.606623103786063 -1.3085884763195474 4.2750615627840194 139 140 135 0.39680910867792796 15 1413 16 1485
568 -1.8338426355630169 2.0053941206396551 3.8197879785551057 187 190 183 1.0391326679506105 47 989 49 1654 45 831 48 1134 36 921 65 828
567 -1.9623220179429921 1.8805723380701149 3.8513340886378904 170 172 169 1.6720894196563119 47 1649 46 1260 49 1912 45 1395 44 1259 50 1552 68 1194 15 628 65 832 66 844
5653 -0.16275104839878385 -1.1947642703923902 4.4420597331982554 213 214 209 0.33675714857474937 38 1117 15 1179
566 -1.9631219086064924 1.8807117012884385 3.8530593406612539 170 172 169 1.6011531908739809 47 1648 49 1911 46 1259 45 1396 44 1258 48 1390 50 1551 65 831 55 1851
565 -2.1807133863399195 1.8642867700107968 3.8067916535678545 208 210 205 1.3211789041683595 47 1646 49 1909 44 1058 48 1386 50 1357 36 1498 51 607 52 554 37 768 38 927 14 652 16 872 17 1196 66 1052 35 643 22 323
5651 -3.1441287014590373 -0.96772056420412012 4.1935299300599675 208 209 203 1.617449735796592 48 1534 15 806
564 0.31413387880208632 2.322759803356651 3.2077508443609402 17 62 7 0.81088829310471178 49 1265 46 1255 44 1030 47 1019 10 150 8 638 6 114 5 100
5648 -2.1400447602399613 1.8372432087722232 3.8376366728689186 193 196 191 2.3221312158578322 13 2305 14 2003 49 2915 45 2203 47 2486 44 1977
561 -1.4596915368978314 1.8177862199928141 3.9210409271111621 162 163 158 1.176919625586947 47 1385 46 1248 45 1137 44 1048 48 1101 50 1139 68 872 66 692 33 678
560 -1.5210155967199719 1.8200093580377161 3.9145313732995879 163 164 159 1.0796851037839308 47 1635 46 1247 45 1136 44 1240 68 1032 14 380
5645 -0.78892360059612543 2.8549177130908285 3.7399747509796475 108 110 107 1.9195622606798382 49 2763 11 1943 15 1882 14 1852 38 1901 16 1857 40 883 66 1189 67 632 35 824 6 1008 5 787 4 665 3 554 2 469 64 383
558 -1.8950401534964925 1.8053164078285104 3.8810211488686055 190 191 185 1.756735323312455 47 1383 49 1622 46 1245
5644 -1.1592442767987621 3.7002397651060113 3.3514681946407241 184 185 180 2.6890001873363949 13 2256 14 1861 11 1955 10 1636
557 -2.1842684601685254 1.8172081442635744 3.8339181222196257 163 165 162 1.604332478356727 49 1173 46 1243 47 258 45 804 44 741 48 1116 50 1134 68 899 13 683 12 757 36 974 52 331 37 400 38 433 14 368 15 30 16 606 66 723 35 347 27 351 70 755 25 169
5643 -1.1592442767987621 3.7002397651060113 3.3514681946407241 184 185 180 2.6890001873363949 13 2257 14 1862 11 1954 10 1635
556 -2.2059962219142362 1.8153246615382554 3.8241486406325746 184 186 183 1.5139884860295312 47 970 46 1242 49 284 45 802 44 740 50 262 68 661
5641 -1.2157029494124034 2.0300125293708962 3.9058933157703279 144 146 138 1.5668447399704937 13 1562 47 1880 14 1229 15 1225 49 2372 48 1832 36 1665 37 922 38 1193 16 1098 39 535 42 1502 43 1614 17 1690
554 0.26520127130097765 2.2948828644836459 3.1949758713537788 85 118 70 1.4244539672692487 47 1395 46 1239 45 777 44 713 48 829 68 588 11 806 8 636 7 101 6 410
5640 -1.2125274446022765 2.691831594234849 3.7349617361793936 162 164 158 1.4110449165618828 36 1901 14 1576 15 1241 49 2592 47 2239 46 2069 45 1851 44 1634 48 2041 50 1783 68 1466 13 1840 66 1113 50 1944 67 578 34 1212
553 -0.27859613466272865 1.8067233788088088 4.0623162201000342 102 111 90 1.3434852992459729 47 1369 46 1235 45 1133 48 1106 68 846 10 648 9 614 51 488 52 214 65 887 66 791 34 1028 67 315 33 651 27 458 69 349
5639 -0.68026433409688469 3.907097381479101 3.3708522838660793 126 126 124 1.9797700244598622 13 2118 14 1634 49 2643 50 1970 10 1641 12 1975 9 1444 51 784 15 1608
552 -0.8017104951044095 1.7288243990751058 4.0318542940188191 140 143 136 1.7401592131528731 49 1625 46 1234 45 1132 68 845 11 818 10 660 12 743 9 629 8 669 66 670 7 522 34 818 33 577 32 582
10825 -4.7564251863213753 2.4801066727673846 2.6034091248718561 165 166 161 0.66251392365364503 73 756 71 826 72 481
551 -0.80109324296697337 1.7309197471377533 4.0339151112976612 140 143 136 0.88414220019256717 47 1627 49 1626 46 1233 45 1131 44 1042 12 742
10824 -4.7564251863213753 2.4801066727673846 2.6034091248718561 165 166 161 0.66251392365364503 73 757 71 825 72 482
550 -0.77296965802584594 1.6782696449349357 4.0561948974955646 168 171 164 1.7891657309935689 49 1167 46 1232 45 792 50 791 68 177 47 240 13 65 12 211 36 166 15 390 65 152 66 488 55 1120 57 1309 34 576 20 277 58 490 71 65 21 167 60 597
5636 -1.0590521296671669 2.4593141820730353 3.8147638397999128 144 147 142 1.731575280487871 37 729 38 873 14 952 15 924 49 1949 47 1897 46 1702 45 1633 44 1440 48 1656 50 1401 68 1211 13 1348 11 1391 36 1445 51 520 52 468 16 1108 39 671 42 1511 43 1612 18 1177 34 1046 20 473 58 595 33 670 27 445
549 -0.92795248572580902 1.6843822735420928 4.0105460317228356 182 185 178 1.3207385314822617 49 1605 46 1229 48 1090 68 841 11 269 10 646 36 1213 38 621 65 784 56 1676 57 1596 34 1039 25 185 26 597 27 543
548 -1.1174776642549142 1.7521726692599753 3.994942986653478 184 185 179 1.5364863252297201 47 1626 46 1228 44 1037 48 1383 50 1140 11 1117 10 929 9 881 36 1223 52 435 37 728 38 869 15 650 16 891 39 531 15 905 66 914 55 1857 54 832 65 902 56 1674 57 1594 7 709 8 943 20 485 58 688 21 325 24 326 25 177 26 464 27 545 59 672 31 650 60 832
547 -1.0983428888186235 1.677836357174888 4.0225427718722671 187 188 180 1.6531492516023738 47 1366 46 1227 49 1603 45 1129 48 1370 13 700 11 815 10 928 12 738 36 1644 52 434 14 395 15 381 16 615 65 790 66 813 35 508 55 1856 56 1675 19 822 33 667
5633 -2.2532338273756083 2.4932166622662026 3.6154332565703835 217 218 210 1.0810267818768688 14 2437 16 2384
546 -1.1484955499008844 1.6149687552745911 4.0216861452647326 139 141 136 1.5403343888861549 47 1358 46 1226 48 1088 68 839 45 1369 9 627 36 841 51 238 65 464 66 501 35 99 67 117 6 474 5 372
5632 1.5357578087556745 -0.10424162510354992 4.7523419300217684 178 178 180 1.4229422778381828 14 2429 15 2497 16 2390
545 -1.591969273870107 1.6966972698768528 3.9298164323565903 187 189 184 0.65872439393178805 47 1364 49 1623 46 1223 15 370
5631 0.063556180032667359 3.5645365556564497 3.6089978822287025 0 0 0 0.4998805121266211 14 2436 37 2095
544 -1.5852515444333823 1.5842040920010179 3.953704850197497 174 175 170 1.5180072215461433 47 1352 49 1597 46 1222 48 1084 50 1116 68 857 13 687 36 873 18 717 65 685 35 425 55 1689 54 725 57 1463 19 532 34 856 67 257 70 523 58 621 26 347 25 179
5630 0.34937817843538005 -0.40653839224633481 4.6382333750377516 209 209 207 0.02587121344496679 37 2105 15 2495
5629 -1.3452269280277824 2.6717915644428141 3.719813717578575 189 192 185 1.0161137586279751 39 2152 38 2699 65 1409 65 1416
257 -0.85396672680995478 1.7966894701293685 3.9813238243181734 155 158 149 1.8760998599891634 47 2330 46 2018 36 1880 51 842 52 847 37 1151 38 1529 35 822
5343 0.44121324143419544 1.9304628305441078 3.1369223025326596 98 139 92 1.1824426461773498 49 349 68 117 40 74 42 121 41 348 17 98
256 0.35587050941691301 1.1986423561780368 2.6220973182239713 13 43 7 1.5177438486397559 49 2502 47 2162 46 2132 45 2080 44 1837 48 1955 11 1857 10 1397 9 1239
10529 -2.3718846602071735 1.6269524618328444 3.275334749076019 204 205 197 2.3722133834229941 67 573 5 741
5342 0.42728427136223518 1.9287730204387037 3.1477350457388353 61 103 55 1.3481002644432536 13 201 14 149 15 127 16 158 42 123 43 663 41 147 39 125 17 99 18 66
255 -1.5667615340447867 3.2494723805207779 3.4053456538899045 176 176 174 2.0751347140181093 49 2419 47 2263 46 2098 50 1804 14 1243 15 1218 13 1859 66 1051
10528 -1.2108458245184115 2.6877022769118546 3.7165356763911621 163 165 160 1.2442999746857826 6 965 7 1096 5 737 4 613 3 519
5341 0.39932576318377383 1.9379195432409826 3.1397870638803407 89 131 83 0.470155123025153 13 799 14 147 15 124
254 -1.5922735818212952 3.2198611589005592 3.4069437427433109 147 147 145 1.1197893592331598 47 2262 48 1889 49 2417 50 1625 13 1590 52 629 38 1220 15 1219 16 1305 53 223
252 -1.2968748265161754 3.192627107569376 3.5277080534237699 163 165 160 1.6800936974770782 49 2414 47 2102 46 1922 48 1694 13 1610 10 1354 12 1476 11 1600 8 1383 14 1285
10525 -0.64765331545485161 2.8226601120151305 3.7595648936063761 0 0 0 0.46221171557452195 6 960 8 1453 7 1024
5338 0.3227616390191041 1.596242279566251 3.1541149444559529 77 121 69 0.55151355973043548 14 436 15 82 16 112 43 89
251 -1.4833399471626278 2.8492196571341712 3.6193201541849591 176 178 173 1.7538830778545265 49 2409 47 2250 45 2032 44 1801 48 1875 50 1950 48 2052 68 1469 13 1839 51 761 14 1551 15 1522 16 1318 40 708 39 937 42 1807 18 1654 66 1120 54 1150 19 1127 70 1173
10524 -1.2979253140479221 1.4913684594197301 4.0067586002806133 159 162 155 0.81495959502053139 5 722 4 565 3 477 1 448
250 -0.48245651982046273 2.7935139889549765 3.8037996400366452 131 136 130 1.7175824694628967 47 2244 46 1901 45 1857 48 1871 50 1790 68 1344 13 1897 12 1704 9 1197 36 1626 51 757 52 755 37 1135 38 1507 15 1604 16 1644 8 1250 65 993 66 1001 35 596 7 1018 6 953 67 562 5 724 4 603 32 739 3 513 4 562
10523 -0.078308564968712691 1.3497128399231557 4.2048746385889464 196 203 196 2.3054609322677413 67 533 5 710 4 644
5336 0.42376457971721571 1.3504493857687556 3.1399625225635956 71 108 70 1.0037795458881347 14 77 15 60 17 87 18 78
249 -0.48464393533322708 2.7929950739073126 3.8019863636418272 131 136 130 1.9604965960495491 47 2243 46 1902 45 1858 50 1791 9 1198 36 1627 51 758 52 754 37 1134 49 2404 38 1508 65 992 66 1002 35 595 34 1114 32 738
10522 1.5471248425158699 3.3851219185081036 3.6278678545334677 0 0 0 0.063251917527239437 66 1156 67 609
5335 -0.032535211378206738 4.3279541162237836 3.2070947389393054 144 146 142 1.6949314917555383 13 1944 52 517 50 1646 11 1636 10 1378 9 1342 51 559 14 1351 36 1408 37 713 38 828 15 1314 16 1406 39 507 17 1520 18 1457 8 1281 66 915
248 -1.2968986564554283 2.7677934429960498 3.6794213201140997 164 166 161 1.4345953059983789 49 2402 47 2247 46 1896 45 1862 44 1790 48 1869 50 1789 68 1356 13 1593 14 1265 15 1238 16 1097 39 686 42 1500 43 1599 17 1687 66 1030 34 1129 34 1213 67 586
10521 0.0021117113648818232 1.72535616701575 3.3164387478470188 44 98 22 1.1592087603787911 5 704 4 641
5334 -0.57395253128829427 1.1798002957407454 4.2076953705427069 126 127 125 1.5752009310572881 47 899 49 1120 46 774 45 744 44 696 48 697 50 756 68 541 11 169 36 799 51 344 52 319 37 362 39 416 17 847 18 758 65 431 35 299 54 603 19 564 34 804 20 294 71 181 72 304 21 259 23 313 13 704 66 466 22 179 59 544 57 924
247 -1.6415902287721373 2.7508753875837351 3.6029487933804591 138 140 137 1.1561826412195189 49 2401 47 2246 46 2076 45 2031 44 1800 48 1868 50 1788 68 1467 51 755 52 614 37 950 55 1892 26 526 27 446 56 1573
10520 -0.96178126584092261 2.2045358302189859 3.899603963653107 136 141 134 1.1614190461487757 6 895 67 427 5 680 4 515
5333 -1.7973057780426382 2.3001506575330115 3.7399100226515456 116 117 114 1.852569052566954 13 2203 14 2028 47 2423 45 2277 44 2062 35 1002 27 829
246 -1.0522268005474229 2.5748434018090478 3.7930845601205552 169 171 166 1.412571472981961 49 2397 47 2077 46 1889 45 1847 44 1628 48 1865 50 1602 68 1341 13 1861 37 908 38 1180 14 1268 15 1247 16 1326 42 1509 43 1635 17 1705 55 2030 54 990 34 1125
10519 -0.96492608491461063 2.2053495558193497 3.8946438669135559 136 141 134 1.1828787322217356 6 894 67 426 5 679 4 514 3 478
5332 -1.3546372602189849 3.6089456906748798 3.3469621546325197 131 131 127 2.1369513365179076 13 1882 11 1953 12 1964 52 775 15 1558 14 1589 16 1603 39 924 40 711 41 1014 17 1889 18 1651 53 333 54 1170 20 664 24 521
245 -0.95393215138377163 2.3836557324543084 3.8654362640645448 164 167 160 1.9409437860779906 49 2393 47 2223 46 2052 44 1780 48 2028 50 1773 50 1937 68 1450 13 1843 10 1604 12 1907 9 1398 51 870 52 876 37 1163 14 1269 16 1341 40 893 42 1851 17 1707 18 1672 8 1446 37 1450 6 1003 39 898
10518 -0.95528451303226547 2.1647545294585564 3.9143210146317045 133 139 129 1.9671155320786038 6 892 67 424 5 678 33 810 4 513 32 691 31 648 3 386 2 367 64 274
5331 -0.11043015401000777 3.0879023266009851 3.7472872250186291 166 171 165 2.4670380418590554 14 2446 66 1404
5330 -0.95890310062271567 1.9189357166639656 3.7921746284388687 162 165 156 0.31560155549857116 13 2536 14 2441
243 -0.29077033161911109 2.1483576082925877 3.9701120113209059 89 98 77 1.4496978398031852 49 2387 47 2208 46 2034 48 1838 36 1854 51 743 52 732 8 1340 65 986 66 997 35 692 12 2075 55 2331 54 1279 56 2049 34 1107 6 870 58 863 33 798 26 703 32 733 31 682
10516 0.43922973117967185 1.9530781618555071 3.1439266907820551 37 79 30 1.3925005696819654 5 646 4 537 3 401 31 556 2 340 1 326 64 196
5329 0.16750859788100181 2.92047900265311 3.8076832759617041 91 95 81 1.29561543050116 13 2492 14 2376 15 2383
242 -0.5586976568428812 2.2567268206393356 3.9399783311097516 168 174 164 1.7144651377359315 49 2386 47 2059 46 1692 48 1847 50 1769 68 1319 13 1613 11 1562 10 1310 12 1419 9 1185 52 735 38 1137 14 1294 39 650 8 1348 66 999 6 882 32 680
10515 -1.5458430120634623 2.6119320401432105 3.624204736344919 0 0 0 0.10109776094330196 66 936 5 634
5328 0.66214494226662668 5.1685634836965715 2.814401047481554 140 141 145 1.8821271021913255 36 2274 38 2140
241 -0.97415262594429941 2.2530925575590772 3.8851452972467446 132 135 128 1.3190951613691522 49 2385 47 2066 44 1776 13 1596 11 1569 36 1650 52 592 37 904 38 1159 15 1249 16 1110 66 921 55 2014
10514 -1.0423394868011822 2.8822837304375821 3.7061866860257253 0 0 0 0.23707646700657298 6 835 65 793
240 -0.97378020120135689 2.2525932463276424 3.8856028069331172 132 135 128 1.3846560839086974 49 2384 47 2065 46 1878 45 1835 44 1775 48 1646 50 1592 13 1595 11 1568 12 1681 9 1190 36 1649 51 640 52 591 37 903 38 1158 14 954 15 1250 16 1109 65 897 66 920 55 2013 57 1729 7 932 34 1120 6 829 67 337 5 475 4 463 31 594 3 326 2 322 64 174
10513 -1.0958534472809784 2.5608778044842793 3.7631065354760227 153 158 152 1.1878094956530614 6 833 5 632
5326 -0.15637474967900886 -1.2198299940167219 4.3169408525569022 216 217 212 2.5782237980835365 14 2271 15 2410
239 0.30177786060844569 2.0500634143807908 3.1367303721724653 25 78 10 1.41846095376465 49 2375 47 2189 46 2008 45 1965 44 1733 48 1824 50 1770 68 1275 11 1718 10 1436 12 1871 9 1260 36 1828 51 748 52 745 37 1103 38 1105 39 856 40 658 8 1205 65 963 66 973 53 208 55 2072 54 1004 56 1837 7 893 34 1083 6 784 5 581 33 773 4 487 32 654 31 615 3 408 2 380
10512 -1.1854720802035899 1.9192737265864961 3.9274108860217973 139 142 133 1.0012188577779131 66 1013 67 491 5 618 3 389
5325 2.807813285157073 1.0024820923206939 4.3658198520948694 180 184 187 2.2619643908432607 13 2133 14 2126 15 2189
