# 3D point list with one line of data per point:
#   POINT3D_ID, X, Y, Z, R, G, B, ERROR, TRACK[] as (IMAGE_ID, POINT2D_IDX)
# Number of points: 380, mean track length: 6.1517199017199014
1168 2.1139897463978685 2.4595533478474745 5.6329743551416263 133 130 121 0.56868693924317404 64 492 99 590 112 355 126 255 55 539
1169 1.9455571831639087 2.5766664667509778 5.544064632847145 132 129 120 0.21263447630829205 59 508 99 591 128 314
1170 -0.60025540142212241 1.4015875873104127 4.2017024060585477 136 122 135 0.47786622981555904 98 678 99 600
1173 2.3519828442697142 1.8713526035710013 5.9979749579774007 47 45 41 0.46810749866204399 63 553 91 492 59 334 95 652 56 401 98 466 92 609 60 423 99 443 73 93 94 315 84 75 85 184 97 482 120 499 71 310 70 247 44 425 45 471 119 377 55 320 74 246
1174 -0.26294158706105747 1.4648129354024531 4.3057727175516627 140 119 89 0.39238812079387936 64 53 59 8 99 217 63 288 109 46 98 246 108 590
1176 1.7545013206719637 2.6731726506703684 5.4859455965078299 133 128 117 0.49934969643683891 57 612 63 728 98 662 58 748 99 588 64 496 60 620
1177 1.0163272728785657 2.3820813696682688 5.7150352025356206 84 80 69 2.2135094243646809 97 378 59 170 92 479 57 415 64 261 98 363 96 471 99 403 61 170 63 337 74 17 64 262 62 473 95 593 90 473 83 78 60 313 73 12 129 119 86 46 88 258 88 320 54 150 112 137 87 183 110 14 65 225 53 109
1179 2.2812028160101239 1.3694364212193428 6.3047638661957839 116 112 101 0.28238121232101243 57 411 59 329 93 471 95 658 91 439 60 426 99 400 98 433 58 540 63 395 113 58
1181 1.5952736374978065 0.86378543905095528 5.5366748746545946 101 98 89 0.011080052391938681 98 93 99 91
1182 -0.93185139243288007 0.98838608479190571 4.1750460717508711 191 176 197 1.6308155090066334 56 207 59 118 100 85
1183 2.2120244447513868 3.6477739173668406 7.1088579736919915 124 122 110 0.34651829794251576 64 477 99 572
1186 2.4087453023225853 2.3578223668311118 5.6944409113947962 126 123 114 0.043532861532535723 92 318 90 85
1187 2.0809637951561473 2.5166688069356398 5.5642591658018539 127 124 115 0.054711552226239864 92 134 90 135
1188 0.81508326103529316 1.7534545352137081 6.1193756183613202 104 101 92 0.39992765125205337 92 165 90 143 71 118 95 430 100 36 91 154
1189 0.90498647264439103 1.8125504207676213 6.0661384364903705 38 35 26 0.12758020984201138 59 62 92 167 90 145
1190 1.7881212174503858 2.5014468475207696 5.701453735074864 132 130 118 0.27644947108141715 99 357 90 151
1191 1.2840336992999279 2.8459721662348292 5.3682960462952893 67 65 53 0.29691956661860081 94 98 90 225 108 403 98 207 65 108 56 176
1194 1.182029960683278 2.8486836575375398 5.3664781780737769 71 68 59 0.13351629157164291 92 236 90 364 88 167
1195 2.4846196702846153 2.0946744505254746 5.853371972183103 121 119 107 0.16136420438864263 98 376 90 394
1198 1.9166301164101935 0.94728453970651405 6.5760563984873679 100 96 84 0.18216534483572913 92 591 93 528 90 448
1199 0.91689197960100977 1.7079366322747205 7.4706065967907502 0 0 0 1.7423937968802741 99 557 90 458
1201 -0.079121198263396031 1.4934260005433102 4.1937084890243677 92 75 83 0.70619106501676943 60 294 90 517
1205 2.3582754515820503 2.2571372915022363 5.7577717547208218 92 90 78 0.21883054775272132 60 543 109 260 90 565 82 207 88 425 87 329 126 169
1206 2.4098238766292495 2.3217651596448836 5.7155368379715741 128 125 116 0.2355513160651399 63 607 90 566 55 446
1209 1.6439042296190247 0.46613413034494394 6.2264139318947871 83 80 71 1.33327580740549 58 664 90 606
1212 2.4311870749140616 1.4665456299786839 4.4131819942227146 156 153 144 2.5164334363590983 64 436 90 648
1214 1.2524821613792236 3.0208049675551112 5.1833934417535827 107 105 90 0.92367234590206659 98 624 90 674
1218 1.007463499925366 2.269774605557592 5.7739556808520494 71 68 58 0.38784614385292715 61 351 63 419 56 269 57 361 99 350 109 23 97 292 94 264 93 425 96 322 90 343 74 23 91 407 82 19 73 15 120 319 95 523 129 115 71 261 70 173 81 46 86 44 88 251 108 649 54 235 121 76 110 18 53 135 100 133 55 275
1220 0.79873164535920826 2.5665417578753043 5.5956172420074211 138 137 135 0.69715436811516385 98 571 97 581 58 669 90 634 61 551 63 653 56 511 93 657 92 727 94 484 91 610 84 265 85 303 86 224 88 482 74 296 128 252 54 396 112 273 75 221 87 369 127 228 113 172 114 110 126 203 55 457 44 511
1221 1.3854507155997371 2.9655155881294237 5.290074059591551 67 63 58 0.64010064898336005 97 635 96 662 90 637 57 557 98 580 82 277 128 290 60 526 65 337 73 258
1222 1.7413255287316558 0.84828548117742397 6.6322638342151183 103 101 89 0.24477403946408799 74 218 57 402 90 450 92 597 91 485
1223 1.2720148720726427 2.8906305869383013 5.3421391616706808 124 121 111 0.68982317071241728 56 186 91 345 90 363 93 352 99 295 54 167
1225 0.12724664590965365 1.2211599825346686 4.5288732325322218 56 37 33 1.0366988517427231 99 318 83 39 84 52
1226 2.5178382923020464 2.157625012902598 5.799578227463499 113 113 103 0.044370023683447751 98 384 83 68
1228 0.76588331145376976 2.4875567175678004 5.6377438716122503 123 122 119 0.40567019843690116 58 330 97 377 83 83
1229 0.14809232516678972 1.245165965865777 4.5314504166610972 127 111 95 0.16127416962158173 59 208 99 321 83 90
1230 -0.1742104012124685 1.2467664288601732 4.0661600476162167 84 67 75 0.96826645655742194 64 296 83 98 84 116
1231 2.494822805236566 2.2157379349224136 5.7912242945332491 116 116 104 0.15690589554282136 63 424 83 105
1232 2.1777005011665271 0.67339172158670102 6.2574624694368 101 98 89 1.7379783641938533 91 434 83 110
1233 -0.00062699639965292024 1.4494030426578408 4.3466686383234627 229 214 187 1.0978595119653756 60 373 83 130 82 152 81 184 65 284 100 219
1235 -0.70809810741615697 0.36003330475847212 4.6331160414276198 76 65 73 1.5921966086960806 74 286 83 141
1238 -0.40980617716278434 0.23870412882981623 4.4202489644698524 98 82 92 1.7523892529947507 59 284 83 174 128 79
1241 1.5611488188708358 0.65769118741674359 6.7439764153889827 84 81 72 0.31200945150634879 98 489 83 202 82 236 84 227 129 176 70 403 81 229 46 431
1244 1.4705495111292923 0.50186539349593307 6.832858481947599 70 69 65 0.25102385234370928 97 508 83 261
1245 0.56937953717435374 2.238434967530794 5.9641065124236992 100 95 91 1.8512687304547502 93 550 83 267 84 245 85 201 120 533 129 294
1247 2.447250746612704 1.5935428622986056 6.1923579511740376 125 123 111 0.76083508273072431 56 573 83 312 82 299 109 342 129 328 75 246
1249 0.43771641729117572 2.1052319667499857 6.7069800378112383 0 0 0 2.0226279008418513 59 533 60 653
1253 1.5625712151908933 0.66196412589704079 6.7488331458271027 88 85 74 0.27478349650568373 59 381 60 501 83 203 91 531 90 546 82 235 84 228 85 255 70 402 86 188 69 599
1255 2.5368112233130602 1.8915931714850889 5.9664525024218404 117 114 105 0.11601681149165112 57 305 82 1
1256 2.3622046583145879 1.6726153839656654 6.1258210248524305 66 63 54 0.17842727940213143 83 71 109 29 82 4 84 1 81 5
1257 2.4980992834886266 2.0562588281556584 5.8856314511738521 120 117 108 0.46214391881774491 90 285 82 70 71 202
1259 2.5054267708057112 1.654886018000929 6.1319965984384348 83 80 71 0.25052013001116502 109 164 82 120 73 151 110 56
1260 2.5054267708057112 1.654886018000929 6.1319965984384348 83 80 71 0.25052013001116502 109 165 82 121 73 152 110 57
1261 2.3406502167913787 1.5486721881157843 6.2315870459574372 89 85 76 0.029289499385744284 59 332 82 123
1262 1.0766206292434679 2.7030978172544575 5.5356267481242467 7 6 5 0.77247097730033598 83 162 82 171
1263 1.0766206292434679 2.7030978172544575 5.5356267481242467 7 6 5 0.77247097730033598 83 163 82 172
1264 -0.12805735273759444 1.5354407387917732 4.3639874681258499 86 65 38 0.64552998262611783 99 435 82 177 81 185 65 304
1266 1.5208726150765857 0.58333975128035431 6.8074557949660157 121 118 111 0.30566732483358688 59 377 83 205 82 237
1270 1.6044145596107378 0.52751229082454498 6.8217539194282129 88 85 78 0.62006711360547229 59 449 82 275 55 405
1271 0.71240291504150555 2.5291321925299606 5.6323339325009165 132 131 127 0.76588557966844939 62 663 83 302 82 279 73 219
1272 0.6242275502082929 1.3807682613098879 6.3832034997628249 117 114 109 1.0595970349016171 60 572 84 272 59 462 121 355
1275 2.4870120742101056 1.1277020873460177 6.4484340019261142 83 80 71 0.076544597260501807 92 769 82 297
1276 1.059018165106228 2.7546023058578482 5.5778899266513644 0 0 0 1.6361033541754264 56 548 82 310 73 328
1277 2.6332363135644856 2.0613601707119225 5.4947576492888377 127 129 118 0.51518888705107657 109 375 82 319
1279 1.0563030243227245 1.0124841353821532 7.6013913533797446 0 0 2 0.65008648591483698 59 519 81 380
1280 0.77931153607597548 0.97525046089612066 6.6933409397101009 150 149 144 1.854180021465053 59 523 83 341 82 338 81 381
1282 0.31900011206739576 0.72680640980537736 5.6993154296371609 143 142 138 2.0314440622831733 59 529 83 347 82 342
1283 1.4368353635321423 3.1683375636111908 5.8154854036805714 107 104 95 1.8254977737230695 63 758 82 343
1286 2.0497481000387672 2.2115482928382879 5.8118538539199598 97 94 88 0.55939778878792057 58 705 60 583 83 287 82 269 91 633 94 511 85 328 71 446 81 319 46 449 64 440
1287 2.436125589565532 2.0975850385758661 5.8519888760080194 86 83 74 0.40706735345394951 63 600 56 469 99 501 95 743 97 547 58 585 93 568 94 394 92 638 60 510 82 160 64 356 91 540 90 497 83 145 73 178 129 267 71 308 69 483 75 152 113 97
1288 1.9367859046115301 0.88998627664554364 6.6069320997205025 126 123 112 0.5363026195878311 57 451 58 571 94 442 82 164 59 393 93 560 95 756 60 508 83 192 84 216 81 223
1291 2.4424155465712021 1.7886012488693983 6.073612341873309 129 126 114 0.75303167380244174 56 576 98 656 97 657 93 746 96 687 82 320 57 605 95 859 120 661 128 306 121 366 127 278
1293 1.5561924429757843 2.8739095569195223 5.3461814094671318 122 118 107 0.38447459577723991 57 520 58 624 82 234 56 526 109 239 64 421 98 582 97 595 96 629 73 207 71 340 44 452 69 462 108 782 65 322
1294 2.47239321188871 1.480142332301889 6.2445269098508591 89 87 75 0.3614643619016063 63 546 57 495 97 541 58 631 96 574 82 200 56 459 98 525 92 700 91 534 60 516 84 197 85 229 59 416 127 119 126 98 55 424
1295 -0.21931908088363636 2.1425052168898824 4.9108014650319758 124 112 123 0.69914077255804452 83 41 82 113
1296 1.4769993072280512 0.90954149102959347 8.0107302139743783 131 128 121 0.27971370978199439 59 530 82 341
1297 0.74754355359745928 2.2792403790125322 5.7513557377484643 108 104 95 0.52454524175537276 64 95 73 18 65 83
1298 -0.11330290619350657 1.1909948397059262 3.501444438462705 141 124 106 0.98732331058805356 64 178 99 37 73 34
1299 -0.59508925199193341 1.3903629774024142 4.3274300575565849 75 58 51 0.08924045480547825 64 231 73 40 108 730
1300 0.1652665544011398 1.2175478917293219 4.6383324904900265 110 89 68 0.7779436552351241 74 212 129 94 31 334
1301 0.070660332022417935 0.4395189762605361 4.146858796497642 210 195 218 2.0853831369640625 57 6 73 76
1302 1.9877913845490351 2.4359509712319949 5.6378935233476604 130 127 118 0.3157557764826544 56 286 73 83 71 192 91 389
1303 2.4676266324738245 2.2507691193972312 5.7451480748082151 120 118 106 0.39318326262338077 82 72 73 85 84 128 58 550
1307 2.3250377651173832 1.5277780886502912 6.1623037006705408 91 89 77 0.3247658102643563 109 112 73 112 110 24
1308 -0.62867514719472206 1.1001238968379836 3.6932591351553401 3 0 0 1.8341220161802851 109 139 73 119 110 41
1309 2.4167612340496785 1.1379200797821492 6.4525046810543074 114 112 100 0.1785038854168306 90 389 109 122 73 124
1314 1.5392294924753152 0.78517042863075859 5.9348872995470483 104 102 90 2.3197905175954578 57 400 73 161
1317 -0.10908695120544283 1.406766453444827 4.3717611060950441 62 45 37 0.52241106481750066 64 374 99 431 73 190 108 805 38 169
1318 2.8039982310711906 1.3740411032498703 6.3245667143508175 1 1 0 0.75577540403882137 56 395 73 193 81 194
1321 -0.57150298092061247 2.6687947871279634 6.0561490573880459 154 149 155 1.6617401979187176 56 545 63 557 2 171 36 145
1322 2.4081806449378487 2.322408671035904 5.7183515611061946 120 118 106 0.26106117387587024 91 597 73 222 85 291 71 395
1327 1.881170840737088 2.8368409870010582 5.3777080060243536 84 81 72 0.40733868371496551 64 452 73 263 100 255 55 522
1329 2.3477658774889183 0.9549068912826294 6.5743113835166165 79 77 65 0.11384369485364346 92 738 73 278
1330 2.0467079610659074 2.6756339528588713 5.5468518329294385 124 121 112 0.32872279284821365 64 473 73 287 55 517
1332 2.207471026150889 2.5128545700828844 5.5824529894293491 127 124 115 0.21511029130595652 64 471 73 291 112 353 113 240
1334 2.545974973011206 1.7765790510209134 6.0569595328578494 120 118 106 0.27905350384454258 82 293 73 299 128 276
1335 1.6303719550025968 0.77339670751987966 6.5508113582779179 126 124 111 0.6537937969013734 56 566 73 310
1336 1.4196707307907954 0.81995827974627578 6.7472491938776589 127 125 112 1.1129974776292 56 565 73 311 75 234
1341 0.70015935186733502 2.4128478302494294 5.717108369033701 77 73 67 0.63430221506236761 62 696 109 362 73 316 61 614 63 723 74 455 56 579 64 488 57 601 98 652 97 653 58 694 59 465 96 681 99 562 83 329 82 313 84 299 85 337 129 353 86 267 128 309 112 380 88 564 75 282 55 552 54 511
1342 1.9969995777796476 2.6963654791347849 5.4572366835168609 89 87 79 0.18167025977119025 59 394 91 551 99 523 64 412 73 212 59 454 109 247 85 242 55 456
1343 2.7101700953511059 2.2558307710274277 6.3520428241376976 115 113 101 1.6676633211590119 92 524 73 86
1344 2.2318966581426283 2.2128938321562988 5.803904172001638 85 83 71 0.21021988133473318 98 473 73 137
1345 0.63599873854659539 2.5969119632672419 5.5243487721324565 126 127 122 3.0549446914369165 83 167 73 172
1346 -0.87552472180187779 0.94352285923965018 3.9395873605493335 86 73 83 1.0098191757834598 109 232 73 195
1347 2.5170594613858412 2.5968059738047469 5.7199690260694469 135 132 124 0.88517331286133194 64 448 73 290
1348 1.5971371647045416 1.7695507350219204 5.8433026734150948 138 136 124 2.0291715305335272 58 772 98 689 73 343 129 370
1351 -0.29322619403934552 1.1035586718155332 3.712725134241345 87 76 84 0.56518503566219325 83 103 85 57
1354 1.9859710730092364 2.7231181119036658 5.4361782861906045 111 108 99 0.12329424867123162 60 337 84 77 81 106
1355 1.5544705901136395 0.2901787449215586 6.4133119859686767 126 123 116 1.5256021824265833 93 468 70 263
1356 0.12565868252936724 0.72781681165204259 4.8349352654431064 141 131 121 0.67068277973295021 59 210 83 92 84 106 85 171
1357 0.12834812367898599 0.72466614010284158 4.8304448877555064 141 131 121 0.77743545206274922 59 211 84 107 83 91 85 172 86 141
1360 2.3562095909381378 2.2550172801290143 5.7542959700300198 71 68 59 0.069481958064904314 93 645 84 204
1361 2.1638283395556792 0.88071445048964936 6.6060679113408929 119 117 105 0.25311775408857179 82 216 84 210 71 417
1362 2.066150474226228 0.80946444967155728 6.6509150408735307 118 115 106 0.38142967143417456 82 220 84 213 71 418 83 252 70 397 81 274
1364 1.7848610384260144 2.8010022006098581 5.3897954583085141 117 114 105 0.24582755682955765 90 581 84 220 85 246 86 197
1365 0.56842292262688454 2.2400543844520868 5.951143138514138 95 87 83 1.2719362046554556 83 268 96 607 84 244 85 200 120 534 129 295
1366 2.0927546745458443 2.6318944780396247 5.5015992078881331 125 122 115 0.051943836330434034 91 603 84 261 85 295
1367 1.293480398682975 2.9824639576038114 5.2818528248679382 119 117 106 0.44986056844000127 74 394 84 263 70 367
1369 2.0984039447524139 2.712648016707861 5.4454604447090658 65 62 55 0.3942789500847062 90 664 84 280 86 278
1375 -0.089168165038298747 1.4319671049551521 4.3123196778453785 202 185 156 0.83065118974718233 63 473 109 179 98 405 64 345 99 379 83 132 73 150 84 111 59 288 82 114 81 78 88 346 108 775 54 320 112 196 127 74 113 31 114 29 65 162 53 125 29 292 100 153 31 340 57 239 38 155
1377 2.4921303630720399 1.8933970988701549 5.9866370214536957 67 65 53 0.29200559930916242 60 281 85 1 46 93
1378 1.8684284327498186 0.39739636226577851 5.6461438750910018 116 113 104 0.38049336544844958 84 7 85 7
1379 1.4431426162916345 0.53679398412585366 6.7977041966792235 116 113 104 0.084732576252798425 83 9 85 8
1382 1.6565002967759723 0.74787960500255179 7.135833804786146 0 0 0 1.931835328191956 74 219 96 391
1384 2.2325115436515572 2.1962607391623479 5.7755830569465019 90 87 78 0.15923342734895191 84 132 85 151
1385 1.1465208343903972 0.61319668893277701 6.7838425983108346 119 116 109 0.36805674803966276 93 479 85 164 69 506
1386 2.3606556031458426 1.6884526493359231 6.1131949841655748 78 76 64 0.17214372665138333 96 524 85 182 129 127 86 167
1389 1.6349103225306554 0.60701413519911851 6.7937039298257025 122 119 110 0.30139957167423576 84 225 85 252 86 190
1390 1.5224389518335821 0.57977735437774136 6.7946980744108938 120 117 108 0.33395567768762413 84 229 85 257 86 186 46 433
1391 1.4033835966999197 0.55963650596028203 6.8088849743424724 123 120 111 0.32228393075824446 84 232 85 260 86 184 46 434 47 481
1392 1.3020482961597233 2.5505097692696022 5.5971549419338364 111 107 98 0.17322049548717935 83 208 85 261 86 185
1393 0.65448767592589474 0.44192153472893597 6.9158061673555418 142 141 136 0.20063786422301036 84 243 85 269 86 175
1394 0.65448767592589474 0.44192153472893597 6.9158061673555418 142 141 136 0.20063786422301036 84 242 85 270 86 176
1395 0.56618377952828558 0.30397540314970939 7.0009687179592381 84 83 78 0.20289743329749485 84 246 85 273 86 172
1397 0.81538388122607153 2.7784524883773876 5.4746322191102195 137 136 132 0.27925819616156378 84 264 85 302 86 226
1398 0.79670280686281392 2.6839289147673937 5.5541864511534111 147 146 142 0.19279524822389393 84 266 85 304 86 225
1400 1.9390313703049331 2.3216737036345996 5.739305606270829 138 135 128 0.44204242726573145 84 282 85 329 59 472 60 579 81 323 69 579 93 691
1401 1.9079828768659077 0.74887312191233135 6.7331034583272444 117 114 105 0.35982508338368535 84 284 85 331 86 276
1402 0.55628390028856678 1.16142795818412 6.6407482095786756 109 105 102 1.921777519101564 84 327 95 824 85 343 86 265
1403 2.2610789742815274 1.0310613769545756 6.5700837206065463 117 113 102 0.19903597768892167 84 309 85 362 86 308
1404 1.2191186428263421 0.67443662731710019 6.772087948875595 130 127 118 0.17424013191040863 84 316 85 374 86 296
1405 0.65834802701807948 0.84079125058847004 6.8035060766183468 151 150 146 1.5375647687838119 95 776 85 385
1406 1.8573948691977218 2.6322211984821942 5.5105394745616927 97 96 87 0.33134092148878708 60 493 84 218 85 245 109 252 64 407 98 544 97 553 58 632 56 478 57 515 59 390 92 652 94 403 95 678 91 552 96 583 99 510 90 577 82 224 71 352 44 464
1407 0.20982314805030988 0.87501802098989034 4.7050448334286319 102 86 69 0.26690236798206446 95 35 120 51
1410 0.95216324547253872 1.6587623314771285 6.1694728652284994 7 4 0 0.26246441691713895 94 33 120 138
1413 1.2423378720632676 0.56921714540260282 6.8001571031335892 104 101 92 0.36816779099636826 96 81 120 416 44 388 97 256 69 383
1414 1.2437663886982289 0.56703962663385599 6.8006902727494172 104 101 92 0.32428158613713221 95 555 120 417 69 384
1424 2.4071410227758694 1.303388210964235 6.347163048052761 68 66 54 0.17396921901015561 95 755 120 592 69 548
1425 1.9806569856684586 2.7888475283298075 5.4011311783897105 103 103 93 0.29317942497644744 95 814 120 613
1430 0.73203606968221158 0.82216825136443117 6.6990608424058342 151 150 146 0.512672246873218 84 326 120 691 86 289
1431 1.4579366471219484 0.61003159999829371 6.7871506833960895 132 129 120 1.1824094710532227 93 709 120 695 44 599
1432 1.0266113800422119 2.5745992293464481 5.5688208288171817 65 63 55 0.81621098240211809 57 183 93 193 61 291 74 158 64 211 90 214 120 94 71 252 92 621 70 152 88 156 119 310 128 128 129 186 54 251 112 5 121 39 75 74 87 191 53 77
1433 0.97996932052532471 1.6445355885938682 6.1730985311729185 35 31 22 0.54774317474748424 62 259 63 304 120 401 98 285 97 281 59 166 93 411 94 176 95 541 91 290 96 298 99 257 92 333 90 304 44 300 69 370 46 153 47 159 55 253
1434 0.69538425270892334 1.4340208206360578 6.3179102672826364 100 96 93 0.24736140311664567 94 321 120 460
1435 2.2303576433238015 2.4194134427411864 5.6448922944968416 74 71 62 0.21696186685055641 58 644 90 569 64 399 57 516 82 212 63 609 74 298 98 547 97 556 59 401 92 645 93 575 91 545 60 503 99 514 73 217 84 209 85 237 81 212 110 100 55 448
1436 2.2033653014027732 0.94617572917761106 6.54641872561821 122 118 107 0.15471787948106125 59 271 129 19
1437 1.2563374356995476 2.9343233915536886 5.332582501162916 93 89 79 0.33816447526231724 92 401 129 25 128 25
1439 -0.52204446220611678 0.28821055482352376 4.1991457834272614 146 141 145 3.1615143371300038 98 232 129 77 127 105
1443 2.2897354113284183 1.1239333903863074 6.4515234017048328 88 84 73 0.05656500285772717 92 684 129 246
1446 2.2055783940199447 2.5204250602726486 5.6072159749393427 125 121 112 0.33437772686405226 60 627 97 670 129 339
1448 0.92078868036415706 2.1015462036263211 5.9502782493306583 0 0 0 0.93549851365286008 59 526 97 685 63 752
1450 -0.33806200783574841 0.95945772532878293 4.5980158721906177 1 1 1 1.3973292105333706 60 654 83 350 81 387
1451 -0.54568945156452719 1.7830921898485266 4.7194639514840784 114 94 70 1.177726003107475 73 339 129 367
1459 1.9162778685174056 2.8580358491279045 5.852140104162789 77 75 63 0.96383406609294342 95 177 71 52
1461 0.81232987872023488 2.4246955499968621 5.6757924830792756 131 128 121 0.26167635529407418 64 108 71 64 88 153
1464 2.327586790158465 1.143683507382284 6.4572382466358738 92 90 78 0.13419880679562712 91 22 71 151
1465 1.4547330373484801 3.1159276783697312 5.1918810117571788 130 127 121 1.6999834538672611 62 491 71 164
1466 2.127081641799732 2.563653535007766 5.5643322000583204 125 123 111 0.23012091108842528 82 8 90 324 71 186
1467 2.4106964273610378 2.3571041986575718 5.700096855166513 118 116 104 0.04600307922976514 58 503 71 196
1469 2.4437073226854342 2.3087128310963436 5.7302620564733475 119 117 105 0.093314771259876583 84 72 71 200
1474 1.0226274908821833 1.8391077241074802 6.0519190672024683 104 101 92 0.39043053283146029 58 454 62 389 71 268 44 368 45 396 119 326 121 109 75 49 61 259 47 318 55 262
1477 2.125567576040694 2.3557917034233422 5.6985346142845943 103 101 89 0.10955945193347361 92 614 71 302
1479 1.5245685713595227 3.0654994217340494 5.1954136585391844 8 8 5 0.48923995050704189 109 198 71 331
1480 1.2938169289896815 2.9159701052509033 5.3224636578360203 122 118 107 0.38460603628491141 96 580 71 338 70 269 45 438 69 400 46 311 121 161
1481 1.638310216786808 2.9174315052801862 5.3138852377865424 63 61 49 0.2812233931910858 109 304 71 376
1482 1.8818121142313518 2.8368451529090724 5.3793800660754787 75 73 61 0.46790463433529939 63 666 71 428 54 479 88 512 100 254
1483 2.1028127158814462 2.7108206359312885 5.4536664786201614 89 86 81 0.30768482060923152 97 643 71 434
1487 0.96430003099488748 1.9296901129942026 5.9968474627732293 102 96 87 0.77260220105403132 61 140 62 132 57 146 93 331 71 91 92 177 94 69 60 117 99 129 70 98 65 26 118 182
1489 0.99693520814497627 2.5716872125689973 5.5921886599117174 132 125 116 0.70183412633065034 93 351 95 406 71 190 97 297 94 203 121 41
1490 1.007449223948232 2.2690806876626461 5.7734322368634015 63 59 51 0.48888402795653957 63 420 56 270 109 24 97 293 57 360 74 24 58 339 59 74 96 323 90 344 82 20 73 16 71 262 93 426 94 265 95 598 120 320 86 43 108 650 110 19 129 116 65 220 81 47
1492 0.83136743725232509 1.7727160672575304 6.1021861112610285 72 68 59 0.33258424457465158 57 110 98 115 94 66 95 428 60 247 99 94 71 111 109 35 64 181 90 333 46 147 69 270 108 574 65 198 100 111 67 69
1493 0.6938043040772861 1.2984073012399575 6.1436454174126975 124 121 112 1.8140291928460459 98 263 44 376
1494 2.431937337662081 1.0392456743208556 7.0233147391813002 130 128 116 0.2920501958728266 59 276 71 284
1495 -0.41731527993682221 0.40781236993229958 3.3588024903695675 172 173 167 1.0475696058796713 83 177 71 286
1496 0.89589959869251223 3.0199995596897096 5.260066805701193 160 160 152 0.25337934905682091 85 26 70 8
1497 1.6628409067012231 2.7433609742113698 5.4406935345736311 125 121 109 0.36585585691856642 64 274 70 20 65 183
1499 1.014542262468775 2.4052195456617396 5.6879658858249851 90 83 73 0.30714253741489561 71 67 91 331 99 280 70 50 108 645
1501 0.83319307710145984 2.0049721840806978 5.9540872235141507 111 104 94 0.4770684456319762 95 95 70 89 55 155
1504 0.93946476965043157 1.6984823657646211 6.1435768143425076 24 24 14 0.34246145695719477 62 265 96 301 70 202 44 294 45 319 69 280 119 268 46 238 47 156 118 313 67 59
1505 0.70273129150812064 1.5440622536681003 6.2425428816024393 110 106 97 0.10513504833012792 71 224 97 271 70 213
1506 2.203250299007665 0.95618031904722089 6.5649856470678376 126 122 110 0.13816506892355507 73 67 70 221
1509 2.5736472814793618 0.98019286398493899 6.4169669903517121 143 144 130 2.3836576950965833 60 429 70 295
1514 1.7394577272993326 0.84891196031351457 6.6373107584174216 102 98 87 0.4615451091214125 83 153 70 360 69 556
1518 3.3320404145545619 1.4806189145129074 9.5150989971585318 0 0 0 2.0862173558958217 57 603 90 532
1522 2.6347201481295595 1.9946204024920338 5.9152445150196211 77 75 62 0.18894060074217306 109 338 70 423
1525 2.5727955195823506 1.0560793704519515 6.4564819480227174 138 135 122 1.1310205372658468 73 323 70 459
1527 0.76254113610576013 1.4567032380903997 6.3082549069254163 120 116 104 1.5030468240244399 59 497 70 469 44 595 119 563 96 651 47 525 118 598
1530 1.0250422008733007 2.5751667615754017 5.5665173663950425 90 87 77 0.81189312867119312 59 76 98 186 99 160 71 253 63 347 74 159 64 210 58 153 70 153 93 192 120 93 88 157 119 309 128 129 129 187 121 38 75 75 87 192
1532 1.326930315938428 2.5581359083355015 5.5947563595482865 115 109 97 1.0459537710755034 59 311 94 266 91 559 83 75 83 207 82 136 84 13 85 9 71 254 70 154 92 199 95 416 81 239 86 49 119 312 46 270 121 172
1535 0.97753565020027844 1.5996699815199491 6.2026888308428809 39 36 27 0.35533757032646573 96 296 83 17 84 25 61 244 63 399 62 380 57 345 98 348 97 361 58 452 59 238 93 409 94 252 91 387 60 326 99 339 120 405 71 276 70 210 86 39 44 374 45 400 69 432 119 330 46 293 121 118 47 275 118 371
1538 2.0302460116174434 1.0826920421702289 6.4639728460283772 130 128 116 0.28190038327394074 59 266 81 16
1540 1.8250307923573983 2.8015515029870639 5.3859667753867839 121 118 109 0.033660099657119288 56 301 81 20
1542 2.3122008750503538 2.2575367671066338 5.4916887940556691 0 0 0 1.2558371588433885 63 189 95 546
1543 1.0262566353581142 2.5232786709722732 5.5944229005439512 74 70 61 0.28960386427251317 73 81 108 742
1545 -0.27257816592987033 0.33534476728298135 4.6791233623837289 103 91 103 0.20710138823806912 59 120 81 81
1546 2.3529478204883141 1.8661196984680277 5.9990257530431546 79 76 67 0.14099642533859655 60 424 82 77 81 98
1547 2.3539017826750812 1.8675461821134984 6.0008317585088049 79 76 67 0.16384253896127124 82 78 81 99
1549 2.5572036803861886 1.4276280578460308 6.2477746022924157 0 0 0 0.099446909684104426 57 363 82 68
1551 -0.1017411412146085 1.4678307698460165 4.1119406387020705 254 241 232 0.26124495672263226 90 518 81 131 65 260
1552 1.9902654082507651 2.4751750665247756 5.6126345213137911 0 0 0 0.16803822459958584 58 580 71 299 91 500 64 360
1553 1.0737179543159323 0.44310558370115227 6.9662308242663133 131 132 125 0.76121063232778585 70 314 83 214 81 173
1554 1.0647867738005057 0.43191011129792689 6.948142537606703 131 132 125 0.19329788196093101 70 313 81 174
1555 0.13471179665760127 1.3115703082449992 4.1749210687455331 223 206 186 0.33704415278877725 90 592 81 180 65 300
1556 0.073700061716417589 1.3627762674221757 4.230073695663422 223 211 195 0.43058745216960154 90 510 81 182 65 281 100 220
1558 0.68823541992604798 0.86605045141475268 6.6046099334859605 144 145 139 0.85107259429848292 59 342 81 297
1560 2.5821041558418352 1.3330037262047829 6.3133864593255744 72 69 60 0.47538523179252479 73 276 81 307
1562 2.361620654483553 2.4623721892573207 5.5652044696228407 84 81 72 0.468882200295901 82 262 81 312
1563 2.1980753767888563 2.6490220003911626 5.4987355883370181 72 69 60 0.040920849136970631 82 265 81 314
1564 2.1980753767888563 2.6490220003911626 5.4987355883370181 72 69 60 0.040920849136970631 82 266 81 315
1565 2.1567565197647101 0.77870864816634244 6.63394869683213 66 63 54 0.39218551521514117 109 317 81 316
1566 2.1019515506141513 2.7193006434364837 5.4550152033706762 74 71 62 0.1478012424635218 82 268 81 317
1567 2.2603395640015176 1.0297611723212847 6.5429433417691429 121 118 109 0.11935706199102582 109 349 81 348
1568 1.2548363948146177 3.0977329816067183 5.1441198364261114 129 126 118 0.87205566323040851 56 592 64 461 81 360
1571 0.00040025659307094759 1.5092146541369533 4.37570742344273 97 82 87 1.4240197371465757 91 697 81 385
1572 1.5798525932390755 1.6866476169759761 6.1034627420916907 138 135 126 0.55988753302077188 83 352 81 388
1574 1.7428436166439223 2.7862686369568719 5.389432139359946 91 90 81 0.55574620964721688 73 4 85 98 62 415 63 444 64 277 71 182 59 256 81 22 54 245 112 9 55 290
1575 1.7552479691823948 2.6754884253673969 5.4870948753432351 127 124 112 0.4208310101187257 92 796 93 737 94 548 85 368 81 355 91 672 90 688 74 425
1577 1.7112878634958071 2.8434971970464171 5.3550613099120996 116 113 104 0.26103536294871416 63 446 81 112 100 141
1578 1.2903121406564357 3.1258880090502146 5.1482494564010546 134 131 126 0.41042894447711553 64 336 81 238
1579 2.4441458790901658 2.3955893191273914 5.6585488840054596 72 69 60 0.04095477485772793 82 261 81 309
1581 2.5256440292034168 1.4363141499589345 6.2228241886274631 111 107 96 0.0074345621651984509 85 88 86 126
1582 2.4943957293391348 1.8993230310732361 5.9822339078997127 87 83 72 0.38002850630247809 70 343 86 204 47 369 46 379 69 535
1583 0.60716373637003107 0.70661566014961463 6.7232509622125329 117 116 112 0.98128782760705846 85 317 86 261
1586 0.29010112433142693 1.2561880161355852 4.3317818508615122 138 118 89 1.6264414518975645 85 389 86 318
1587 -0.12122496835074707 1.0552103703682651 3.9184463829246612 19 9 18 2.5940213090633324 59 525 86 339
1589 -0.58244586332864245 1.7361883755614542 4.5144621577821553 232 212 187 0.63300351062277216 57 50 88 127 87 58 62 87 1 67 2 71 55 147
1591 0.89014940614797622 2.3854561662133205 5.7007066993625415 121 117 108 0.47971425533994133 61 169 88 143 55 169 74 19
1592 1.2625855446353691 2.8312366724090547 5.3713149845120371 134 130 119 0.34733372147502273 62 329 88 166 108 405
1594 1.9066221045431526 1.6676516647133885 5.7654735102766432 156 152 141 1.0149228844476244 61 240 88 194
1595 -0.17307274237458339 1.4410807973806041 4.3282639671871834 136 119 99 0.43063786905404838 64 183 88 210 108 723 54 95 87 135 53 39 29 253
1596 -0.19527054135105382 1.4300845493130594 4.3402497627961756 25 7 3 0.24308706990142248 63 285 88 211 87 26 62 57 29 220 55 110
1597 0.74797326388364804 2.1797468151698696 5.8295755351529301 108 104 93 0.43291360731675327 62 310 88 252 87 93 61 276 55 164 109 27
1598 0.75308120325893069 2.2260390378320745 5.8187434290723026 105 101 90 0.25259798060957783 64 195 88 255 73 20 54 140 100 131 55 166
1600 -0.076729940368728267 1.460883100166118 4.3087741481031294 84 67 37 0.57836036406580071 109 42 88 302 29 221
1602 -0.19554465664903109 2.5794687949678985 5.5172203218378852 90 79 87 1.1258197795915232 98 297 88 332
1603 1.2631195291052644 3.1344936393225975 5.1373308077850961 130 130 120 0.13427997947982176 99 421 88 386
1604 1.2675037410643715 3.1383258608103821 5.1454378096960873 130 130 120 0.32293793356260031 95 583 99 420 88 387
1605 0.8669525076896295 1.4929033901002591 3.9812796917079312 90 86 75 2.7124646881575236 62 503 88 411
1606 -0.58497051898267893 1.9256269281061635 4.5541714353606775 107 86 90 0.46892016139183212 74 313 88 440 29 327 2 182 55 445
1607 2.2610353807753505 0.86384569592467619 6.6134025339942237 81 77 66 0.42169858339317701 99 532 88 443 87 258
1609 1.3383324313893648 2.8357383551004411 5.3656870686715816 128 124 113 0.7772512353664045 64 415 88 483 54 397 126 141
1610 0.79688536099072838 2.6635171421163011 5.5186942789333227 138 137 132 0.33120371982008928 61 520 88 485 128 209 54 399 112 269 75 195 87 371 127 233 55 460
1613 1.590106254872657 2.8534574950699412 5.3761222137104721 124 122 110 0.31154556309143622 61 589 88 541 87 406 54 480
1617 1.710826498676463 1.8816259804526927 6.0602316904286253 132 129 120 1.3745281770541755 56 621 57 635 121 398
1618 2.3613231714898415 1.6897796544029635 6.1166532584503788 76 74 62 0.29300471793416133 61 393 62 525 88 342 63 492 91 490 90 494 92 637 129 197 128 111 112 212 121 233 87 225 126 50
1620 1.2243602426018365 2.8639716590149997 5.3607587727349788 59 55 47 0.46627926862079949 84 234 85 299 71 378 70 373 86 228 88 486 62 633 56 520 109 246 63 665 64 417 57 554 98 575 97 587 92 729 93 659 94 483 95 711 59 441 91 608 60 479 99 543 90 635 82 245 129 302 81 287 45 561 128 257 54 432 87 372 113 171 114 64 74 234 126 235 65 319 108 789 53 210
1621 0.95715853461301836 1.8788722040490164 6.0276957177296699 86 84 76 1.0175933972841138 61 263 62 395 109 108 63 409 74 175 57 353 98 353 97 372 93 419 82 98 85 108 70 191 70 251 120 390 62 397 109 110 57 352 98 350 97 369 73 98 74 32 70 252 63 493 109 167 64 304 98 425 97 432 58 526 59 304 92 532 93 490 94 325 95 601 91 456 60 403 99 392 90 467 82 140 73 147 84 143 85 167 129 60 81 121 86 105 44 278 45 393 45 394 69 360 46 231 46 286 128 11 54 272 88 312 121 106 47 265 87 241 127 37 110 58 65 244 55 266 55 268 55 323
1623 2.0326050682399845 2.5540561281946657 5.5422058902845537 101 99 87 0.42415613225747956 91 296 44 77
1625 0.94372720041162317 1.7210312694483489 6.1358113029277863 39 36 30 0.29957170781213166 90 125 44 145 65 15
1627 0.72499705376411372 1.3537036973190539 6.3611317999948973 90 86 75 0.52962128278181997 91 107 44 158 69 121
1631 1.3279696817953084 0.60871933204454565 6.7699173940297861 143 139 128 0.96003153333533331 95 221 44 193 69 179 95 222 119 177
1633 2.3009993305657717 2.4691930722659889 5.5977795733269984 130 128 116 0.39996111547828483 92 445 44 254
1634 0.68400050158719938 1.2765519384972464 6.4165877793355888 134 130 121 0.23061412488614197 58 66 44 309 45 335 47 190
1636 0.73564129196521866 1.9680840218307836 5.9841873249865269 109 102 92 0.31570407181263505 58 445 44 363 45 300 82 104
1638 -0.013803925344449944 1.3427341270723141 4.2082798700382043 4 1 3 2.2534315604553288 70 266 44 390
1639 1.2674741132828258 2.5999374334858691 5.5720974745898291 153 149 137 0.88352204775226528 70 34 44 412 46 199
1640 1.2831056045665066 2.5635083825389979 5.5964522167752699 126 122 110 0.85201541562595384 70 37 44 414 119 364 46 326 121 40
1641 1.9910654251466573 4.7790093789620931 10.243798532853955 146 147 140 1.6310036337559033 109 197 44 446
1647 1.7835029720882829 0.73578105306797681 6.6914668803141266 106 102 90 0.27562905784190306 59 388 44 553 45 589 70 400 119 518 46 426 47 444
1650 1.5995519124777635 0.53301482001031841 6.8270256312318569 123 121 109 1.0641968493407798 59 448 44 586
1651 0.89636436888234561 2.1505003113718621 5.9583050974548044 123 117 105 0.69979262112103924 70 483 44 606 45 692 121 382
1652 -0.80241769070832303 0.57779743047919663 4.7309205432171764 159 141 163 1.0602400716329239 120 710 44 617
1653 2.1146159789297729 2.546629410798237 5.5555592008117154 126 123 113 0.30854941544417702 63 213 57 216 44 78 93 302 95 458
1654 2.0456628110733259 2.5123651007097676 5.5895215639502513 112 110 102 0.55816608378190669 96 623 120 539 74 371 109 255 64 403 57 514 98 546 97 554 58 639 59 395 92 648 95 729 60 496 93 579 99 511 82 218 84 212 44 468 45 513 128 216 112 287 54 377
1655 0.68096301578993801 1.0156460852413083 6.3483805165634672 134 130 120 3.1144907325173627 97 342 44 381
1656 1.9493754966877572 2.2715524627114947 5.7458872649650079 161 159 147 0.24220321045835255 70 276 44 472 45 521 69 481 121 182
1657 0.11681846715273234 0.82667086549464508 4.4662391534152981 99 87 95 3.2356283306434772 44 15 45 17
1659 0.77671695657800532 2.0841024163415924 6.0858104473037118 87 81 69 2.1704576186877316 62 139 45 119 119 121
1661 2.3312887117864118 1.6849310648881519 6.1142582886238088 132 128 116 0.45499867382072773 91 62 45 129 119 152
1662 2.2505574576648879 1.3513121329330817 6.2833781534551632 117 113 101 0.15242134253802916 44 166 45 151 46 143
1663 2.2505574576648879 1.3513121329330817 6.2833781534551632 117 113 101 0.15242134253802916 44 165 45 152 46 144
1664 0.83318792260437369 1.8080898508750696 6.5803976670254638 94 90 80 1.8584207301996614 63 132 45 156
1668 0.75900226382267499 0.93795810410901825 6.5974819224404113 158 155 148 0.61954859553245167 93 73 45 192 69 157
1669 0.71765512522939789 0.93945784069530613 6.6090479038615548 163 160 153 0.21021520836816765 95 185 45 195 69 159
1670 -0.53392791782430415 0.59572208518089043 4.9775599293189803 48 29 22 0.62600719035137153 120 54 45 268 46 224 44 225
1674 0.72468166338975604 0.91964645835870862 6.6147027502441027 109 106 99 0.17419632536942731 60 135 45 345
1676 2.53836559104312 1.895528394798512 5.9720728083937837 129 125 113 0.36807159330078337 70 183 45 387 46 214 121 95
1677 1.8852893135258315 0.9618238883621214 6.560637655724439 150 146 134 0.41775343640854645 70 222 94 307 45 408
1678 1.1222081193398359 0.7449811857904467 6.7050665041580455 84 82 70 0.27966779894461818 44 384 45 413 69 445 119 334 46 251
1679 1.9033978414510007 0.68714251908268276 6.7164500188251335 137 133 121 0.51255375336376408 94 304 45 415
1681 1.8210753936859012 2.5718566813410408 5.5382240278177832 104 100 88 0.17276336781837826 44 465 45 451 119 363 46 320
1682 1.0264196577736928 2.478839433578329 5.6584031658763854 103 99 88 0.27281005525141178 44 417 45 462 119 366
1683 1.0264196577736928 2.478839433578329 5.6584031658763854 103 99 88 0.27281005525141178 44 418 45 463 119 367
1684 2.3208551976589455 1.5058252156901542 6.1911603198786764 112 108 96 0.35334746432290326 44 487 70 292 45 472
1686 1.3748625075310923 0.53800786897740793 6.811737429176544 142 140 128 0.23946553624455513 93 469 45 485
1687 1.9668987868445185 2.6404217282277163 5.4411699626779582 131 127 115 0.32974192463943763 44 460 45 504
1688 2.1176115216304834 2.0229357795114762 5.9071170799597112 159 157 145 0.21439995164705097 71 361 45 528
1696 -0.92570140073781959 1.8495317967217872 5.8726397727096113 0 0 0 0.023473113320103718 62 621 45 618
1697 1.5217918254971594 0.57374416961938479 6.7926473944227004 136 134 122 0.19513399752265717 70 407 45 626 119 525
1702 1.4009085269519128 0.55689295859692212 6.805122765936706 127 124 114 0.47208468223119177 58 601 92 698 93 633 95 783 120 632 44 560 45 627 63 524 60 498 81 284 83 209 70 408 69 631 119 526
1703 2.4042155748997378 2.2864155925212315 5.7403825935709207 0 0 0 0.41613554884678788 56 283 70 53 88 82
1704 0.6668613218061441 1.0651221781492941 6.552922430808783 138 135 126 0.10624356323419074 44 176 45 186
1705 1.6784884191647602 2.0492021665693052 5.1736895857815961 0 0 0 1.0087880686249915 44 538 120 573
1706 1.6275391726722459 2.0017189649223286 5.2324499594078615 0 0 0 1.0954815312884294 44 540 120 609
1707 0.15606511427420056 0.71982506176069705 4.7866428338792506 106 89 77 0.41739696927974723 45 41 69 50
1708 0.71274396274721508 1.1397725384433455 6.485743752651346 105 101 90 0.23238675189309008 59 45 92 112 69 136 47 196
1709 1.5188872916592231 0.66692163646497238 6.7340682208667877 98 96 84 0.19873147893497844 45 209 95 232 69 175
1710 1.1993239347141122 0.55459401927461627 6.8105417715131242 132 129 120 0.35540806814544146 95 217 69 194 118 210
1711 1.3563206076061423 0.52837657393456028 6.8196891536735809 133 131 119 0.43127637659260643 94 9 69 195
1713 0.99390445953441187 1.6780695356379887 6.1603004578364553 100 96 85 0.25325556845812058 70 203 69 282 119 270
1714 0.67935937595059803 1.2301576399074103 6.4397059356566428 139 135 126 0.44468880924055942 96 100 69 307
1715 -0.60385001387273807 0.57075413551654364 4.9531344380483064 68 52 40 0.73656695561612195 44 331 70 185 69 341
1718 0.16031411296539858 0.80828360677663447 4.7948685125756301 187 171 146 1.1009618802524777 45 367 69 399 121 31
1721 1.2392691299323775 0.41591807334521602 6.9715971729155504 153 153 143 0.5943011515501555 69 448 119 389
1723 0.065771655708926915 0.70052530619405384 4.8736769346117441 151 137 108 1.0312405197328249 45 502 69 467 46 324
1724 2.1132479674880282 2.3270576609769145 5.6890357420271984 118 116 104 0.18994148263713126 45 517 69 478 119 415
1725 2.11738797802139 2.3363401050343495 5.6902358863965885 118 116 104 0.31668916326380941 45 516 69 479 119 414 44 470
1726 2.0668189090883677 1.0645967126121483 6.4845196167692523 119 115 103 0.2059028660531568 70 297 69 499 46 344 47 381
1727 1.9082081455736746 0.93493285610675259 6.5628332781083527 108 104 92 0.31349829365215554 45 538 69 500
1728 2.4269028206801826 2.1673444060671896 5.7516257028430919 132 128 117 0.36777140645038009 45 570 69 529 46 373
1729 1.9613048925114718 0.82716913812255621 6.6270523480220644 110 106 94 0.24742344779893619 45 586 69 555 119 488 47 441
1730 1.7222052775738728 0.82090246628500452 6.6149201725794979 118 114 102 0.19012761858295069 70 359 69 557 47 385
1731 1.099134618101792 0.60788045411891267 6.7820381320045549 130 128 117 0.21384090694922953 45 542 69 565 119 491 47 398
1732 1.6312944530265028 0.59213212259075132 6.7589611029116279 136 134 122 0.36164967748476351 44 558 45 625 69 600 47 477
1733 0.65872666648787204 0.4485204781616921 6.91822612649886 141 138 129 0.49511485401587391 45 631 69 608 119 552
1734 0.64680986299143672 0.33164996341094155 6.9724653485693642 143 140 133 0.37421759340964111 45 632 69 610 119 527 120 593 118 562
1735 1.3065304720940329 1.2856194354948143 5.0869685316891458 134 130 119 1.7494570849514954 45 605 46 442 47 488
1737 1.4653202410681618 0.50570944299073994 6.8439048520327042 89 87 75 0.58507631420750594 92 750 69 632 119 547 45 657
1738 1.4660326530303431 0.5082428103901937 6.8486948942314081 89 87 75 0.35813939149067953 92 751 69 633
1739 0.80071193892161086 0.18441418750911995 6.8359306866707277 0 1 0 1.5040746713297513 45 663 69 653
1740 0.80071193892161086 0.18441418750911995 6.8359306866707277 0 1 0 1.5040746713297513 45 664 69 654
1742 0.76393555040352978 1.872111091257036 5.0463466952607563 149 145 134 1.4538614407553472 45 696 69 669
1743 -0.73794352518991291 0.83495228132105581 5.0580156256417244 188 165 175 0.80884143494992156 44 605 69 680
1744 -0.10725585379274359 0.60388517527433339 4.9392647410196231 29 19 17 0.80756488843284269 95 396 120 365 44 333 69 406 70 244 93 443
1749 0.19363408979614055 -0.94043983006375653 5.4080439745352349 104 100 89 1.6170517667889226 45 178 119 113
1750 1.0474177908722659 1.7880463838522056 6.0983122011909918 41 39 27 0.28410450290807737 44 134 119 136 47 135 69 265
1751 2.3699478629516157 1.6657851336271086 6.0988841296839258 127 125 113 0.05012889006907649 44 152 119 148
1756 1.8976516188874508 0.937575436860139 6.567717663504915 82 80 68 0.41812290137666697 44 316 119 279 118 206
1760 0.93842745653734561 1.8850384434525955 6.0297920500694691 98 94 85 0.29405160380051448 44 366 119 323 118 367
1764 0.92829062060349343 0.73284375221665987 7.2095517291209816 5 4 1 0.15574390724990045 45 489 119 390
1765 0.92829062060349343 0.73284375221665987 7.2095517291209816 5 4 1 0.15574390724990045 45 490 119 391
1767 2.4873057177393352 2.0923572840814528 5.8263243314028959 122 120 108 0.51378676055736472 69 531 119 465 46 376 47 357
1768 1.9619058050204741 0.82881975369645011 6.627777030213414 80 78 65 0.26764500514935918 45 585 69 554 119 487 46 394 47 440
1769 2.0711755415537296 0.79997332123826947 6.6513135037582325 123 121 109 0.022338602442981571 69 558 119 489
1770 1.3473323471574072 0.48944547028655566 6.8534615077744476 109 109 101 0.36539771668878102 44 589 45 660 119 549
1771 0.56820670832315545 0.30313061195112739 6.9795695135401301 116 115 113 0.861290782170681 45 633 119 553 118 563
1772 1.9230950248000405 0.78197385402205932 6.7238239480982758 130 128 116 0.014388171538265179 45 677 119 567
1773 0.97918855474496358 2.8756724227900539 5.4286930624301784 140 137 128 2.3034401565067277 44 620 119 593
1776 1.5328752327869652 0.81156849425220201 6.6544077844392611 132 130 118 0.48849372419227338 98 343 91 440 119 443 97 351 120 463 118 379
1777 0.70350734642730872 1.5904755300548434 6.219640435146669 105 102 93 0.12809625335274843 57 87 71 137 119 160
1778 0.83423104244345114 0.76042008767498204 6.9438168483682752 140 137 130 2.2474073901592115 45 705 119 603
1779 0.88534964885737399 1.6775762424624694 6.1597772725195039 96 93 84 0.33119266288215332 63 309 56 86 64 170 57 103 97 145 59 156 93 314 94 183 95 535 91 302 96 297 99 253 84 28 70 204 44 297 45 320 69 103 119 155 62 262 56 252 71 221 47 274 65 129 100 105 67 56 55 130
1781 2.2965023835976828 1.854267146746539 5.979131362252863 131 128 113 0.29188402457812107 44 283 46 99
1782 2.5274507049179631 1.663882503208564 6.1080864606952998 119 115 103 0.23632313886045667 71 114 119 151 46 112
1783 2.3065326785079603 1.6510170367713932 6.1143718913585445 139 135 123 0.10284887813759569 45 137 46 123
1784 2.3253911530071285 1.4783611942185582 6.2189438664683179 115 112 97 0.17968061149988837 71 141 46 134
1785 0.81390010377309074 1.5755384765477807 6.2531104010977065 69 65 54 0.30212114667093259 69 378 46 159 47 285
1786 1.27235404031884 2.8808467047499438 5.3284649642544162 125 121 109 0.45315152196917197 44 221 46 178 65 188
1787 1.6335507043913891 2.56718761569803 5.5467363121959066 135 131 119 1.165631927830848 95 600 46 183
1788 1.8240487307764286 2.5304281968628306 5.583657136150836 138 134 122 0.037994294130444028 96 484 46 185
1789 1.3749946949799974 1.6066623419704933 5.3050124079921819 88 84 72 0.51054612574707559 69 245 47 220
1794 2.3399239619870582 1.8523196278053871 5.9844586644951763 98 95 80 0.09755461100226806 44 426 46 277
1795 -0.40372766460127757 0.56510853105823822 4.9881576341128273 40 21 14 0.67666768410132849 44 406 46 279
1799 2.6609945847555991 4.2290816094047967 6.0849122989259534 99 95 83 2.2092162749864586 45 459 46 321
1801 2.2837947058044819 2.5718926278994525 5.543231416988041 90 88 75 0.39277384383807989 58 724 46 412
1803 2.3819289074720777 1.1272333716008818 6.4522154221901111 127 124 109 0.41965114755187427 69 588 70 390 46 417 47 473 118 517
1806 0.99396845920445565 1.8537272426786022 6.0419224628701684 33 30 21 0.43034900921591784 62 282 63 321 56 261 58 323 59 169 93 327 94 188 95 529 96 314 99 271 90 329 71 99 70 192 88 102 46 232 69 361 119 324 54 111 47 266 65 146 67 75
1807 1.1408000433356003 0.53910916078566473 6.8293032688751936 127 124 114 0.54861438092784431 109 146 45 543 69 566 63 523 74 282 92 635 58 520 93 566 94 391 95 747 46 400 60 449 70 362 118 498 55 351
1809 0.6916464460954157 1.4362084400553163 6.3127853020440803 119 116 105 0.41148208903818334 70 215 119 277 46 245
1811 0.73464742230624769 2.0843177138290625 5.9185036618066791 108 101 91 0.32637696828718527 57 145 108 194
1813 1.4063538852204154 2.8265403037491081 5.3904781284138812 108 104 92 0.0090184385305254414 56 177 108 551
1815 0.78314704276520208 2.2045538610294377 5.8443857036100715 84 78 66 0.50826245984424379 88 130 108 558 54 138
1817 -0.095135560149010853 2.7739514771895979 5.9236410129746746 136 132 129 1.5583993632554238 98 512 108 646
1818 -0.14611856556146183 1.4260790744092386 4.3484775256248778 140 123 97 0.76354554173417011 98 39 108 683 31 208
1819 -0.43472189131639127 1.4625873393579898 4.2566998756190033 159 141 117 0.36128216556403947 64 51 108 686 38 100
1821 -0.42802012488504682 1.7141300131927195 4.4704064179339991 86 67 63 0.3456257304701944 64 253 108 712 38 84 99 41
1822 -0.06835745341196732 1.44461762079708 4.2918949995755007 84 61 27 0.33204183615727417 99 325 108 722 38 128
1824 -0.50536717194638558 1.4999515031539372 4.370556648210508 109 93 100 0.43610368689476869 73 31 98 328 108 726
1825 -0.13687944667843965 1.465541495681306 4.1739302167613967 88 63 39 0.36195441758357699 99 381 108 752 38 132
1826 -0.18898574992201733 1.4310290876889642 4.2557815195477335 115 93 65 0.43753886765721722 64 301 73 102 108 756 38 126
