# 3D point list with one line of data per point:
#   POINT3D_ID, X, Y, Z, R, G, B, ERROR, TRACK[] as (IMAGE_ID, POINT2D_IDX)
# Number of points: 387, mean track length: 4.4987405541561714
1 -0.15906570676370821 -3.6395225922812977 6.1849633326251343 79 112 65 0.17696902759559682 53 18 11 131 12 17
2 0.11813216086365724 -1.4943092244963323 8.0129820202171516 30 68 25 0.52776388268004404 53 126 11 157 22 327
3 -0.024428420899699738 -2.9149318790184711 7.4152197513145515 79 106 61 0.47929349833516127 53 295 11 180 22 491 23 141 25 305 54 225 10 145
4 0.087662014819065173 -2.6246349533652675 7.4518039157668268 83 114 72 0.44747159741104642 53 208 11 183 22 495 24 317 25 317 26 244 27 357
5 0.35068028208765606 -2.3415180681945889 7.4694897428107581 80 109 65 0.48434305120398746 53 219 11 188 22 498 12 251 24 321 54 198 10 182 52 208 27 362
6 0.25205680151586557 -2.0551083404998827 7.463600003061547 89 125 79 0.74797873605439558 53 316 11 193 22 499 12 213 24 371 12 257 10 188
8 -0.19303883483176601 -3.8864857211996524 5.7320587253241149 46 92 43 0.45258307587682356 53 345 11 213 24 349 25 294 26 272
9 -0.1174801730296024 -3.6408634737948828 6.187876854173278 84 117 72 0.57722632950208841 53 349 11 214 12 237 24 352 23 208 25 342 54 216
10 -0.17461980647696451 -3.5296725345522657 6.367187780359731 106 144 98 0.29479640741928048 53 280 11 215 22 524 12 238 23 209 10 213 52 246 41 241 9 207
11 -0.1140043933395932 -3.2576585065215742 6.9807905948958595 82 113 79 0.31170413117276063 53 285 11 216 22 530 12 242 24 358 23 215 25 300 54 186 13 232 10 217 52 249
12 -0.11622575099181462 -3.2609132695406453 6.9878143814613969 82 113 79 0.32714087676421721 53 284 11 217 22 531 24 359 25 301
13 0.0058891516769872948 -2.7855838705248872 7.4444277750363241 109 142 97 0.45466214528712873 53 357 11 221 22 494 12 248 24 362 23 220 25 314 54 190 13 240 10 225 52 254 41 214 9 214 26 239 27 355
14 -0.049116126678620753 -2.6242179544925435 7.4510826769351901 92 125 77 0.87977548906492919 53 359 11 224 22 536 24 363 23 222 25 348 54 231 52 204 41 249 9 249 8 295 51 278 26 291 50 239 7 243 27 396
15 -0.13266496655119611 -2.4412435727979411 7.4737508841177327 123 168 113 0.48816059426258684 53 213 11 229 22 380 24 210 9 221
16 0.32640321739998007 -1.0078979696826322 8.517236962368397 1 2 0 1.7449980097217381 53 378 11 246 12 277
17 -0.051536693826868887 -3.5439451342078421 6.447596993507827 96 123 80 0.29465760116807449 53 351 11 249 22 525 12 288 24 389 23 246 25 343 54 217 13 270 26 281
18 -0.24910050816042992 -3.2609414452336152 7.0002329381107957 139 197 132 0.98115847219424701 53 353 11 251 52 303
19 0.033264109453422987 -3.6647222887627811 7.5905351788616215 5 7 5 1.6503347684788101 53 354 22 426 23 218
20 0.31970581315698532 -2.7294595607008976 7.5531178737711082 33 56 17 0.94639917543698238 53 401 11 260 12 320 24 415 23 272 25 397 26 344
21 0.18861385985941809 -2.0513908283901396 7.4757016270603351 39 79 27 0.32740039705019985 53 404 11 262 22 540 12 297 24 397 23 255 25 353 54 237 13 282 10 252 52 284 41 253 9 252 8 256 51 229 26 295 50 208 27 408
22 0.62320081743062283 -1.4008758879447223 7.8094978882173134 42 73 30 0.48969633241167898 53 374 11 269 22 565
23 0.62606423931838784 -1.1800299987389109 8.0904902262860094 87 112 72 0.28485385847996447 53 376 11 272 12 305 24 382 23 262 54 247 26 209
24 1.4942805999820312 0.1624678693066848 8.4140667487762748 147 148 142 1.5842219708092755 53 385 11 276 10 243 41 298
25 -0.059450081076901425 -3.9051580686911809 5.8214818356978206 41 72 26 0.45673225977893583 53 422 11 280 10 260 41 274
26 -0.14624829873241793 -3.8634199003389993 5.7993681023798365 121 154 112 0.29475614735536915 53 421 11 281 12 308 24 407 22 569 23 266 25 391 10 261
27 -0.17332833537102962 -3.7423313330920251 5.9973297805401815 100 137 86 0.50333807074772818 53 389 11 282 10 245 52 299 41 275
28 -0.19017752419592318 -3.586400565243292 6.32052506711634 50 96 45 0.48300460984051069 53 390 11 283 23 245 22 552 10 262 52 301 41 276 9 263
29 -0.12248770373127593 -3.5054773613353065 6.4301495305124128 53 89 43 0.47549988537555676 53 391 11 284 22 554 12 311 10 246 52 278 41 242 9 239
30 -0.2269063030444754 -3.0451386853972857 7.3624264211399177 45 88 35 0.42006663634290275 53 398 11 286 22 556 23 248 10 265
31 -0.26392810899605629 -2.5984692893538246 7.4788382240012945 56 100 41 0.82640949585730861 53 434 11 288 12 294 54 229 13 239 10 269 52 310 41 282 9 272 8 323 51 258 26 318 50 260 7 281 27 417
32 0.52393765577884421 -1.4948849938284805 7.7490211208949376 46 82 35 0.663393650078832 53 443 11 295 22 580 12 342 23 285 10 277 52 317
33 -0.18565427692018785 -2.6469015378511793 7.4596137310573498 96 140 79 0.84395454269666881 53 433 11 301 24 392 10 268 9 285
34 0.42722257829902965 -2.3062332275170183 7.5085860866705678 26 59 14 0.39342935356158404 53 453 11 305 22 590 12 350 24 445 23 297 54 333 13 348 10 298 52 334
35 0.20941822529768386 -2.1897268368508409 7.4633593389384245 85 118 71 0.4832895113901815 53 436 11 306 22 576 25 400 41 312
36 0.28149866897367315 -1.9741858632974592 7.4846371525714828 83 114 70 0.46959704107737421 53 438 11 307 22 577 24 433 25 402 54 293
37 0.42107753184526892 -1.3147820588366872 7.9653958332779577 65 114 58 1.0834854004418715 53 444 11 308 22 581 24 401 23 286 25 357 54 246 10 308 52 344 41 350 9 294
38 0.55003128016863245 -1.136758602773182 8.13177969765146 49 98 45 0.49515702250163118 53 417 11 310 22 582 12 330 23 287
39 0.83492871026525262 -0.64839478699493935 8.8228043571480228 41 71 31 0.92052483777316374 53 469 11 316 10 310 52 349
40 0.19484490872601087 -3.1324898580849312 7.5042038673699079 30 61 20 0.80633258609735792 53 494 11 322 23 309
42 0.2462010309470454 -1.8410417745471652 7.5113078712107786 42 81 34 0.37554714167572623 53 459 11 329 22 597 12 356 24 446 23 315 25 438 54 334 10 326 52 372 41 345 9 309 26 366
43 0.28969899934410587 -1.1668363102713515 8.2747766865148602 32 66 29 1.2388273215761318 53 467 11 334 22 603 12 359
44 0.16560907796387342 -2.562947146792971 7.4970537597732028 77 108 64 1.0716613591487814 53 497 11 346 22 631 12 387 24 466 54 350 13 385 10 343 52 387 41 380 26 383
45 -0.027136463144855065 -2.5009691221074948 7.4489771934590827 44 86 36 0.60733274021226868 53 482 11 347 22 616 12 369 23 343 10 320 52 388 41 367 9 328 8 372 51 323 50 307 7 335
46 0.13048977026067735 -2.3072930123959354 7.4501473724571055 39 81 33 0.50776498566091588 53 483 11 348 22 618 12 371 25 434 10 322 52 389 41 369 9 303 8 356 51 324 50 290 7 332
47 0.021813654690275346 -2.0070046968394069 7.5308555330872702 131 175 114 0.57724123984333708 53 485 11 350 22 619 23 314 52 391 41 371 9 329
48 0.42209787100091795 -1.5842229497640661 7.6440944829896509 42 80 31 0.53349192125571843 53 486 11 351 22 623 24 448 23 320 25 439 54 336 52 393 41 374 9 312
49 0.42344180275025389 -1.7611255114545377 7.5895750463641063 33 69 23 1.400347226813409 53 505 11 357 22 641 12 393 24 484 23 360 25 460 54 360 13 393 52 401 26 386
50 0.71956014801108259 -1.8705026312731401 7.95399572617724 62 82 47 1.7877869773860451 53 509 11 362 23 362 52 402
51 0.13630765270413348 -1.3696848117994955 8.2100820806383901 35 79 33 0.38839834647746213 53 506 11 364 25 441
52 1.4045798799315068 0.18030469537782709 8.4960320942190268 106 153 96 1.6435131422019822 53 510 11 367 54 357 10 355 41 389
53 1.3833622454659036 0.18922318261502347 8.408960198910183 106 153 96 0.86276894393518744 53 511 11 368 10 356 41 390
54 -0.066544474813280852 -2.8487790396938988 7.4265277622988544 60 89 45 0.54223266926729341 11 51 22 274 12 53 24 77 25 89 54 45 13 50 10 42 26 51 27 55
55 -0.34657323601805556 -2.6091932967416969 7.509990391537956 118 161 108 0.36888802493899914 11 56 22 280 9 78
56 -0.20517731507954393 -3.6239712941652122 6.2033152826283322 111 155 99 0.3823512480744114 11 23 22 358 12 19
57 -0.15520524836845453 -3.6087708995054157 6.2383318900516551 72 107 62 0.3168076853037638 53 21 22 360 24 185 23 19 13 142
58 -0.086208050549402698 -3.2760417470505847 7.0244769788131372 73 104 63 0.33184177740225773 11 38 22 368 12 40 24 195 13 36
59 -0.083834784566553508 -3.2718931762507619 7.0192953142501109 73 104 63 0.37278616428313766 11 37 22 369 12 41 24 194 13 37 25 69
60 -0.022430425787300132 -2.6393444296964965 7.4274332965807899 100 130 82 0.36162404390357333 11 55 22 378 24 272 23 57 54 54 9 66
61 -0.21321502338634818 -3.4816903128118044 6.4589499619143096 183 232 176 0.39498392778902752 53 171 22 420 24 192 23 133 25 55
62 -0.050908316111431338 -3.412341879710667 6.6917321993571282 89 117 76 0.35403121575218133 53 175 22 421 24 262 13 144
63 -0.1619933284298041 -3.2622043174113853 6.9676488070310372 48 87 42 0.58610732833922141 11 133 22 424 25 262 54 137
64 -0.051676438662480229 -2.7922864114235 7.4342628404971292 72 102 56 0.35982442378738771 11 181 22 431 24 314 23 180 25 308 54 146 13 202 52 201 27 301
65 -0.19979731512340457 -2.6211584435591977 7.4675955203877278 125 168 112 0.1762203464237603 53 204 22 433 12 167
66 -0.013826307767002988 -2.127656588853279 7.4879494857157294 67 115 53 0.59895519630067817 11 147 22 445 10 153 9 155 8 221 7 178
67 -0.013226241253865909 -2.1292429578921861 7.4918991941062494 67 115 53 0.62588046367935646 11 148 22 446 12 171 10 154 9 154 8 220 51 159 7 177
68 0.680793574144549 -2.3521303889403038 7.7582089804632348 82 103 62 0.60228714751561929 53 314 22 447 24 370 12 256
69 0.54836340953639917 -1.9694872055381132 7.5890989064178713 72 97 55 0.10491081689760433 53 323 22 449 23 154 11 152
70 0.079287586419779052 -1.34936537621241 8.4125484401561348 31 73 27 0.64539872033959578 11 205 22 458 23 158 52 145 41 119
71 0.60234049420405833 -1.1817703233872028 8.0617422305500916 111 143 100 0.5222951128943164 11 162 22 460 12 119 24 286 25 247 54 112 13 116
72 0.78198078462669918 -1.0050663618172662 8.5242015580125123 50 69 35 0.3467699028508191 53 259 22 464 24 342
73 -0.051641417724541012 -3.9800310805504235 5.6976922588091838 78 104 60 0.42134299320646385 11 174 22 478 23 173
74 -0.10510807382622825 -3.7797821533817522 5.9811555654511599 40 72 27 0.32081477023994209 53 272 22 481 12 235 24 350 25 341 54 178 13 228
75 -0.10719010645736081 -3.7852143315623188 5.9874259995946399 40 72 27 0.27439959868461683 53 273 22 482 12 236 24 351 54 179
76 0.48454620858591668 -2.6417076551466288 7.6023303825458468 37 63 24 0.46741363872500519 53 303 22 496 24 365 23 224
77 0.31553279704461973 -1.729539002142896 7.5761548421540983 99 128 82 0.43200675309787701 11 241 22 505 12 214 25 276
78 0.44596311288632051 -1.4804895551148789 7.7429483484006569 115 152 100 0.35768404248671476 11 203 22 510 24 335 23 192 25 280 52 271 10 235 26 168
79 0.59344468272083106 -1.3219652053382451 7.8964879009507234 32 64 22 0.44975267382290091 11 159 22 514 12 269 25 242 13 254 52 134
80 0.6296424666183702 -1.2294287695484398 8.0375376339696079 40 73 30 0.59554461131955372 53 335 22 515 12 271 24 379 23 234
81 0.81368139034841069 -0.92562318727137294 8.5271959342546069 45 67 30 0.48083884682216149 53 338 22 517 12 278 24 383
82 -0.05254401866672604 -3.5394840641383234 6.4461559105656168 94 121 80 0.54427069237231418 11 250 22 526 12 289 10 215 9 175
83 0.18390004966058715 -3.2281307017439276 7.4759377414833432 53 74 41 1.223165704135363 11 254 22 534 23 270 41 245 9 210
84 -0.27529915207948397 -2.9678536476469293 7.4167375760643965 63 109 50 0.37168524897694438 53 356 22 535 12 245 24 310 23 249
85 0.5983096834399293 -2.647128457372911 7.7830706844934037 51 70 38 0.56603753059754092 11 225 53 402 22 537 12 323 23 252
86 0.54658901241476365 -2.1188306679316216 7.5610893110488222 35 63 22 1.0463640402035392 11 234 22 541 12 258 13 249 52 261
87 -0.080224168569216811 -1.2156091697703004 8.8284783278429355 63 111 61 0.72325897454160171 11 274 22 546 12 272 23 263 52 324
88 -0.11065751539129066 -1.1581962945651878 8.8491923911581143 153 168 150 1.4154562828428296 11 275 22 547 12 331
89 0.41490732970601607 -3.0126103055374545 7.7186541703834699 55 74 45 1.976362091241969 11 257 53 452 22 557 24 431 54 349
90 0.036100599126453657 -2.6686090129257867 7.443305203636533 30 71 21 0.54882734440866887 53 400 22 558 24 393 25 380 13 280 10 267 52 307 41 281 9 271 8 321 51 257 26 320 7 242 27 418
91 0.65684482053878124 -1.6218267218282463 7.7795397213973967 77 99 53 0.89925171572565521 53 413 22 564 24 400 54 299 13 331
92 0.65417059578932346 -1.3518510551905962 7.9187070157211785 80 102 63 0.27232306027634301 53 414 22 566 12 303 23 261 54 270 24 402 13 310
93 0.11272389375992199 -2.4865365394328367 7.4551167386986039 82 114 67 0.48365692892845985 11 302 22 575 23 275 27 450
94 0.66988134931085197 -1.1223773557210199 8.2138909775540068 42 70 29 0.34872883476360383 53 446 22 583 12 344 24 425
95 0.88841341309873301 -0.51969543918788452 8.9391948033251989 29 60 16 0.20361796912063931 53 470 22 585
96 -0.20325445822352137 -2.5206893909643076 7.46951371530018 61 111 52 0.54827046720295147 11 324 53 480 22 589 12 349 23 311 10 321 52 363 41 368 9 302 8 357 51 325 50 293 7 313
97 0.54585548817677265 -2.4250186861993761 7.6710560556468002 76 99 55 1.0011940825580476 53 484 22 591 12 351
98 -0.14265978711217212 -2.0992708953208048 7.564424141915187 83 133 70 0.68250443278373263 11 327 53 455 22 593 23 299 10 324 52 369 41 370 9 330 51 329 8 376 50 297 7 339
99 0.54251098600890091 -2.2063723457877931 7.5669084443673205 27 57 17 0.2387642603253608 53 457 22 595 12 353 23 301 54 314 13 349
100 0.68712861815587278 -2.0001512141506206 7.7701121939966908 32 63 19 1.4473572226810354 53 462 22 599 23 318
101 0.38276326259679194 -1.2379331180386155 8.094948494267328 171 222 156 0.44767443308255234 11 333 22 602 12 343 24 424 23 323 10 334 52 395 41 376
102 -0.1486146672435664 -3.9639248073708995 5.6872133425042461 38 74 30 0.6717493864876859 11 339 22 607 10 338
103 0.39588681511841578 -2.6685311717152791 7.5724661557119779 27 57 15 0.37815395353016218 53 481 22 614 24 443 25 433 26 377
105 0.62400950155699786 -1.9205860417747109 7.6016297443443497 37 64 21 0.61940729008233864 11 328 22 621 10 303 52 342
106 0.58409840254581336 -1.2746115629120773 8.0175775125221822 52 85 42 1.1188506505575029 53 488 22 624 12 358 23 322 54 320 13 355
107 0.37922264555810392 -1.438596073976115 7.8213879135979285 111 149 95 0.61109026218689899 53 500 22 634 12 374 24 469 25 442 54 337 13 376
108 0.10902520379294089 -2.9286232313598837 7.3966898048731471 28 59 17 0.80998613112689988 11 361 22 639 12 392 23 359
109 -0.10759856626408339 -2.4078559158267048 7.8505111431705803 134 175 115 1.52533650116029 53 519 22 647 12 398 24 491
110 -0.10759856626408339 -2.4078559158267048 7.8505111431705803 134 175 115 1.52533650116029 53 520 22 648 12 399 24 492
111 0.1576426276414932 -1.8385171900065722 7.5279060908926372 44 87 33 0.36677663446474656 53 324 22 501 12 261 24 326 23 189 25 326 54 202 10 194 11 197 41 256 9 194 8 261 51 198 26 205
112 0.73295425647988188 -2.2422045456445523 7.7584724614441862 81 99 63 1.7676098223170593 11 349 22 620 12 388 52 390
113 -0.1797697282570955 -3.8535167445392098 5.7187738713976506 41 81 29 0.24281803015636308 22 354 12 11 23 130
114 -0.090942974165058241 -3.5414231562313256 6.4206450773457826 32 69 25 0.30566079271973196 11 27 12 26 23 23
115 -0.20206222706129176 -3.5032854799451396 6.4286119529857855 49 96 42 0.22615460275452565 11 28 12 27 24 191 25 54 10 134 52 186 41 160 9 135
116 -0.24846265984269536 -3.1348093446028122 7.2926874618492752 203 239 196 0.30479251829308912 22 264 12 46 23 36
117 0.43361918029197988 -2.8275868921092444 7.6519851082091437 23 50 6 0.38188932915116269 53 52 12 58 24 205 25 211 54 148
118 0.43361918029197988 -2.8275868921092444 7.6519851082091437 23 50 6 0.38188932915116269 53 51 12 59 24 206 25 212 54 149
119 0.15333274831619553 -2.4059258729535622 7.4506957130630571 103 137 91 0.20885320742765526 11 62 22 290 12 67 24 96 25 219 27 94
120 0.45163603530578944 -2.4075290856100318 7.4664391200462834 21 42 2 1.0915591062588137 22 118 12 69 24 105 25 221 53 76 54 66
121 0.45186307290625133 -2.4117884338427324 7.4644394982030446 21 42 2 0.85824984583032049 22 119 12 70 24 106 25 222
122 0.06627012800391309 -2.2229601709579505 7.4206060490988088 101 141 88 0.10588443540749193 22 294 12 71 24 107
123 0.37561192268134852 -1.6709563950433777 7.5881930444551644 25 56 12 0.35711595521689182 22 317 12 102 25 144 13 96 54 86
124 0.50423081622301325 -1.2051679407574327 8.0391157895647112 123 163 111 0.19636901988549069 11 101 12 115 23 102
125 0.59986972855555365 -1.1799703639682224 8.06216812082784 102 139 93 0.30347605151206919 11 163 22 401 12 118 23 103
127 0.97862020437775554 -0.5003081555914215 8.9233492643812795 38 51 21 0.18166397540279267 22 344 12 142 24 248
129 0.99093455568954147 -0.40402609779261328 8.9320644845080643 67 95 54 0.19138264919328174 53 140 12 188 24 289
130 -0.1240234777285832 -4.0152662200045111 5.5858886673701491 88 121 78 0.32222946680945957 11 172 53 158 12 194 24 297 23 171 25 292 54 130 13 193 10 126 26 187 27 188
131 0.32945174629904589 -3.004903279499338 7.579137916095565 24 52 11 0.4185540035195322 53 199 12 206 24 271 13 204
132 0.42305861127167421 -1.3658947202221552 7.8386090801274744 125 167 113 0.26856783906958198 22 512 12 219 24 284
133 -0.57232926460967504 -4.6496290131604381 5.5374603768007784 165 207 159 0.73973335329375711 53 344 12 227 24 347 23 203 25 338
134 -0.047627987883149051 -3.9787326390467976 5.7107089915431173 75 102 61 0.57591840256397586 53 269 12 232 24 348 13 265 54 252
135 -0.25214482357403095 -3.2598041704311016 7.018917235113836 150 197 141 0.295390725449239 22 529 12 240 24 356 23 213
136 0.15720232455335728 -1.8384723374400376 7.5272437109687669 45 85 33 0.33732504473622293 22 502 12 260 24 327 23 188 25 327 54 203 10 193 11 196 41 257 9 193 8 262 51 197 26 206
137 -0.065811807255096333 -3.7985868994796146 6.0519064524457784 80 110 64 0.21403969591363087 22 523 12 286 24 387 53 346 23 206
138 0.65407219131008965 -1.352400715315899 7.918007150706984 74 99 59 0.26394947386230194 53 415 12 304 24 403 54 271 13 311
140 -0.44947340870280211 -2.806105633615569 7.583140846809644 197 235 186 0.58193463962072922 53 430 12 317 24 412
141 -0.29638262487109962 -2.7286926953922186 7.4628323860138854 47 89 39 1.0373936132324497 22 573 12 318 24 413 23 250 54 226 13 237
142 0.1829747823761356 -1.6904767055813081 7.5611596801627279 108 141 88 0.64447105728536525 53 411 12 329 24 399 13 286
143 0.6039240918672385 -1.0497683620234715 8.2397492074485772 98 137 86 0.18068042393732395 53 447 12 333 24 426 25 390
144 -0.56952669154880409 -3.2996126069509133 7.4313784440943316 0 0 0 1.7903697763968383 22 612 12 336 23 340
145 0.54458248100610684 -2.2043094959549427 7.5637161210638544 31 60 16 0.19053410182390473 53 456 12 354 54 313 13 350
146 0.54781966424678219 -1.8414149030261746 7.6021368204469431 29 62 17 1.5514590896921812 53 464 12 357 24 434 25 417 54 335 26 367
147 0.15139274877016881 -1.0989051760760284 9.1157018248171706 0 0 1 1.9571820528663153 53 490 12 360 24 435
148 0.84996768094846631 -0.63073546250199608 8.7757617363583158 32 59 18 0.42806770376025116 53 468 12 363 24 456
149 -0.11445789525502764 -3.084444029705756 7.3183017767100047 30 68 22 0.86185909263534644 22 630 12 367 24 465 23 341 54 345 13 360
150 0.085479361406700885 -1.5349610867189152 7.6972381209843643 59 106 54 1.2828906829838393 12 373 54 317 13 329
151 -0.11444960555958142 -3.2831340501124364 7.1866869139219034 32 65 22 1.0286908506684915 22 628 12 384 23 351
152 -0.32344131346978494 -3.1259646137193839 7.2736350467317763 175 210 165 0.91162466104890028 22 629 12 385 24 479 23 352
153 -0.5892031071825945 -4.5682873465544862 5.477263500448613 23 67 16 0.23466497862095281 22 5 24 7 25 4
154 -0.20351900497045314 -3.4632508558642159 6.5138923854024826 104 151 96 0.34431477603159016 22 255 24 55 25 56
155 -0.1642546588613146 -2.900480262192124 7.4009776980053967 72 109 55 0.6100450337648069 22 271 24 74 10 39 27 209
156 -0.14684140489572922 -2.8709423545291246 7.399204036886724 74 111 57 0.1967505122164285 12 52 24 76 25 85
157 -0.027010044763176852 -2.294945481153809 7.4547248761755327 96 135 77 0.74731731363871978 22 291 24 100 23 63
158 0.29918272408373991 -2.299374033896505 7.4650824988793589 30 62 15 0.55602307946479379 22 292 24 109 25 116 26 75
159 0.30830720063544448 -2.2980752498004819 7.4637678028476477 30 62 15 1.2777932929658575 22 293 24 110 25 117 25 225 54 68 27 236
160 0.70947308263527276 -1.8096899538887139 7.8193766758841337 44 66 28 0.22017404506087743 12 103 24 130 13 100
161 0.49032058244298382 -1.4743966708662337 7.7480864691005555 35 68 21 0.16598377376409515 22 325 24 135 25 155
162 0.66015736333973873 -0.86402759391328954 8.499046406090093 88 127 75 0.061230634231438763 12 130 24 148 23 165
163 0.75647731074303703 -0.68579390204835344 8.6816591680271937 39 78 27 0.22981734212479557 22 224 24 152 13 127
164 0.72601331756109155 -0.58779394016955044 8.801117903856877 175 212 164 0.25333761249261716 11 119 24 154 10 111 52 233
165 -0.13127039582955441 -3.642505906605118 6.1906682391556407 107 133 88 0.39458463546439515 22 357 24 183 23 16 13 24
166 -0.049324407085871561 -2.4062929455669058 7.4578491053586138 120 159 102 0.35136226831288858 12 168 22 284 24 214 23 147 25 106 27 221
167 0.37632734880310392 -1.4550320890305473 7.7629166435043331 92 127 76 0.4697004583522098 11 156 12 106 24 237 25 153 54 92
168 0.78828152439463606 -0.95236117316521041 8.4409904295536879 81 109 61 0.16854250074985391 12 128 24 244 25 251
169 0.726410306883989 -0.88528817967674156 8.5017856812412198 36 67 25 0.59254411908990401 53 134 24 246 23 166 52 160
170 -0.15628292312504183 -3.2951473554944832 6.7630192392064075 91 129 81 0.2593874473851549 12 199 24 263 23 137
171 0.12086624257110565 -1.4966785566162875 7.8185852939241265 55 93 46 0.28816583900961967 22 456 24 283 23 191 54 90 13 177
172 0.99564922860882699 -0.40023930240158229 8.8938427736685117 64 88 48 0.32081087746868225 12 189 24 290 23 117 54 171 13 189
173 -0.53502135365989145 -3.3050309712454311 7.4550805524942776 0 1 0 0.93062576007456199 12 243 24 306 23 219
174 -0.053546237178533226 -2.7926736207488965 7.4364336809973324 76 106 56 0.39474155721937731 22 432 24 313 13 203 27 302
175 -0.34466236781819304 -2.1852824908676283 7.6928334444815318 169 212 150 0.53020948417181435 12 253 24 320 54 193 25 319
176 0.21304773104908609 -1.5531760135711561 7.632763044015392 56 92 44 0.48241905517923561 53 252 24 334 13 215 54 87
177 -0.19312926562525551 -3.2715611146550887 7.0358507867978579 43 82 37 1.0130332706562 12 241 22 532 24 357 23 214
178 0.018392410702993502 -3.4515428332621814 6.8446697222362252 41 61 25 0.32477611868824935 12 291 24 390 23 247 22 528 52 194
179 0.58357305377006141 -2.3119359553659047 7.5708108564875349 80 97 50 0.71523957935146376 12 324 24 396 54 292
181 0.32219599569171992 -2.7264667368722386 7.5580625490639131 26 57 13 0.59016557137506742 12 321 24 416 23 273 25 398 26 345
182 0.010084268594888477 -3.2708101419124787 7.5363846582426817 66 92 44 1.5953129923385856 53 479 24 441 26 372
183 0.046821477439004992 -1.7179444852113668 7.7091080254443733 146 179 132 0.89582366533965219 12 372 24 447 25 416
184 0.12044812982321179 -1.4132575854209217 8.1266383573726202 28 62 20 1.4687120219424952 12 376 24 449 23 356 54 318 13 330
185 0.7878370664702129 -0.84160967073175619 8.5907796523106246 40 69 21 0.17328084483914527 12 361 53 491 24 454
186 -0.081271117228053497 -3.7161798623334761 6.1059178884145702 33 69 23 1.2294906047639365 12 380 24 459 23 336 25 446
188 -0.21311956683408118 -2.1884508927485271 7.544023386933727 203 223 172 0.56364731802140866 24 486 54 364 27 471
189 -0.16553684081202977 -3.8701163901633295 5.7409874374045984 109 143 97 0.3479102247170453 12 13 24 28 25 21
190 -0.12325298006014918 -4.0157436994874862 5.58574801947585 84 117 72 0.23298284967876923 12 195 24 296 25 293 26 186 54 129 27 189
191 -0.13397153125978781 -3.7423463024759345 6.0600281841642625 30 66 18 0.16739491507668738 12 16 53 17 23 13
193 -0.20671621484994476 -3.3219136053208134 6.791669900172506 148 198 140 0.0066984661158671606 12 35 23 29
194 0.035884474513809078 -2.1907123159201665 7.4595503011256747 130 171 115 0.2181576240169936 22 296 23 67 27 104 26 73
195 0.34061246033047593 -1.8805454570370821 7.5269922083732963 100 131 87 0.20975819856959688 53 105 23 83 10 70 27 136
196 -0.025131391653588242 -1.2259257075808341 8.7606913864469202 68 118 65 0.17878522843096767 11 109 22 205 23 106
197 0.69612208886404481 -0.8859719720207615 8.509239925266403 102 138 94 1.0340853919504964 12 132 23 114 52 159 41 123
198 0.27491947712942466 -1.7172352682509935 7.5654452215543539 77 108 61 0.29787992903120591 22 395 23 155 54 85 52 118 26 165
199 -0.041202320861347667 -3.613948355170729 6.2931255414576448 93 119 82 0.51104151540041165 22 485 23 178 52 26
200 -0.17728780572193842 -3.6304970802221854 6.1888339354907167 91 129 78 0.11966647298911599 24 300 23 207 54 131
202 0.0061603524471859298 -3.6159205696657977 6.4366155811625347 37 66 27 1.0300592424450641 22 553 24 428 23 269 25 409 52 302
203 0.65061252810141845 -2.0523676056117734 7.6634440709726679 77 100 54 0.30322152821917275 22 559 53 410 23 281
204 1.0210490290699741 -0.32483718488623375 8.8688328038031727 37 64 26 0.55284232147462564 12 346 23 329
206 -0.35532737599518588 -4.5768328695699338 5.4515263017498885 37 63 21 1.0785956474386329 22 626 23 331
207 -0.22625086524598817 -3.6282906626456386 6.2401306864546013 99 128 95 1.0116548560918248 11 177 12 159 23 18 22 359 24 184 25 39 10 133 9 206 41 239 8 238
208 -0.5892031071825945 -4.5682873465544862 5.477263500448613 29 65 21 0.23466497862095281 22 4 24 8 25 3
209 -0.15116256610001161 -3.7038585228005307 6.0417540416971356 36 72 28 0.36531499450801674 24 181 25 34 13 17
210 -0.18757284729289009 -3.6735637751247925 6.1073464075008008 56 97 51 0.13930877040661782 22 246 25 35
211 0.40161076690153324 -2.2580231503193691 7.5028113666779337 28 52 8 0.89119857961868765 24 115 53 87 25 122 54 74 26 78
212 0.2677510428533022 -1.7656779313923887 7.5272072751667016 101 130 82 0.17198796224263446 24 231 25 136 13 93 26 87
213 0.19863897996157204 -1.5864087478518891 7.650425000943736 147 177 127 0.28046081244099075 11 89 25 145 10 83
214 -0.13378759610623747 -3.9887812649601635 5.59374497182539 30 67 21 0.88194646326226445 12 155 25 190 26 116 27 10 10 12
215 -0.080654954225101327 -3.4257740084768873 6.6883701681667782 37 71 28 0.38834431085431259 53 174 25 200 26 32
216 0.0028756165960982065 -2.8802533836682902 7.4488342373550456 80 106 58 0.45958002265942338 22 375 25 207 54 46 13 52 27 211
217 0.04074745764138283 -2.8277371331477688 7.4426639759981388 29 56 9 0.33998163399764236 22 277 24 269 25 208 13 157 27 303
219 -0.043755844888079265 -3.9511661087644576 5.773744346966895 72 97 56 0.2338292133834437 53 270 25 295
220 -0.10539006836969957 -3.753307387328582 6.0069914441698522 40 71 29 0.20333046249369935 24 298 25 298 54 180
221 -0.17395630269656834 -3.5347321603480149 6.372486762661322 106 140 97 0.31628267363637103 24 354 25 299 54 184
222 -0.00052960044037939861 -3.1366037695558884 7.3550125007668639 72 98 51 0.34226164082678867 24 361 53 291 25 303
223 0.085470080821972771 -1.8318259624931703 7.511957718491173 50 88 37 0.68753606338534745 24 398 25 354 26 255
224 0.47029260700099351 -2.5721592195189906 7.5913033969458175 72 95 52 0.62600129568274421 22 497 53 362 25 383 54 264 26 294
225 -0.028247787001253542 -3.7954832088014885 6.1732072716577067 41 68 26 0.90593237643931612 24 427 25 408 54 305
226 0.43112908253995369 -2.9697721876392866 7.6793107155169285 37 65 24 0.45701732796083688 24 430 25 413 26 361
227 0.57693645204937305 -2.8047424676008768 7.7229398406516703 40 62 21 0.89651988069459299 24 467 25 453 26 382
228 0.63936134559809532 -2.3412982063389931 8.0899203885844209 60 77 31 1.0319504901327172 24 483 26 388
229 -0.54702709364434543 -4.6053821924712421 5.6749778646198372 108 161 92 0.91129056236955719 12 396 25 464
230 -0.2125477971721651 -3.7819472131871099 5.971973063425974 58 101 53 0.49026012850479156 24 178 25 193 54 12
231 0.26039854306896099 -2.3049628191066813 7.4614479708173382 24 57 12 0.65780309021531513 25 269 54 63 13 165 24 223 27 230
233 0.78764655082718371 -0.71696558312905023 8.6387996899970716 95 133 86 0.18270954784173113 25 285 54 210 13 220
234 -0.19585905396115591 -3.5730048414335607 6.3146349126270014 57 97 49 0.18717526146681585 25 370 54 256 13 269
235 -0.11758277682199594 -3.5047421613287946 6.4157724769529443 42 73 35 0.20106005787769066 25 373 54 257 13 302
236 1.532429001249729 0.22141316876789227 8.4616673173800425 154 155 148 1.346712213652453 24 385 54 279 13 297 27 379
237 -0.049643132886652043 -3.7929797822423628 6.0107297487923983 85 110 71 0.77971712196027787 25 369 54 282 13 317 26 308
238 -0.057121615890725404 -3.6732908797812871 6.3908255247853916 77 102 62 1.3719125961095522 25 372 54 283 13 301 26 311
239 -0.42201127746978939 -2.5777449473423508 7.6530154158098167 200 228 179 0.93875800398905673 24 432 54 291 13 306
241 0.70662937406347404 -2.1425423913505348 7.9159683887679302 32 64 22 0.7243287963314905 24 422 54 316 13 374
242 -0.40945369706855983 -4.6256202904917405 5.4865931847552023 32 60 20 0.81105244977203361 12 365 54 341 13 357
243 0.11675918128579357 -2.8199821043684743 7.4694222670459736 23 58 16 0.29559973179880084 53 495 54 346 13 363
244 -0.055983455582765629 -2.5026943230908931 7.4480122928863945 42 82 29 1.0529368218342765 24 480 54 347 13 364 26 381 27 463
245 -0.17833857862194352 -3.7506715939311657 6.0003619670302868 93 133 86 0.5195000150734933 22 570 24 408 54 255 12 309 23 268 25 367
246 1.3171488807360705 0.27523744473754147 8.8879675984087676 146 149 137 0.039693364645149373 54 303 13 295
247 0.011800469662189566 -2.8198132697052705 7.4326845545473095 98 131 88 0.023823430397506833 54 49 13 53
248 -0.27721858586979858 -3.0918982052553652 7.3574178446723106 218 255 213 0.57267988079180598 24 265 54 34 13 149
249 0.97296907143222888 -0.50540723289098732 8.9417414426526403 33 50 14 0.068956355899010779 54 124 13 188
250 0.33788672867808078 -2.996719501001095 7.5594650119680402 30 56 13 0.24037753790371702 24 270 13 205
251 0.64363444873437159 -2.3667593393353572 7.7098626278914182 27 54 10 0.25174707884142283 54 200 13 247
252 0.081988620369510004 -1.9688299083002589 7.5228788262047068 114 150 97 0.69432731908316658 54 236 13 283 26 296
253 0.74606231766561504 -0.94236341769924703 8.4891096272594648 75 94 54 0.53215798458995389 25 364 54 277 13 291
254 0.17420541022000849 -3.3641795010087612 7.5169157750033326 34 62 19 0.49622709739757276 54 329 13 343
256 0.063202820987038777 -3.2187241645823956 7.3563576313161372 68 91 49 0.89491242202398291 25 427 54 327 13 362
257 0.5290686810591827 -2.4608226243214864 7.6657769963254703 72 93 50 0.37094839291365517 54 352 13 368
258 -0.081764567053027773 -3.322594899010348 7.1916913256741299 27 61 15 0.72925260476841158 54 356 13 389
259 0.15447122756011838 -3.5422283764275733 7.2013234206997394 168 167 162 1.6076799392957182 54 362 13 391
260 -0.23461931459811364 -2.4246437885059096 7.5146897781087398 35 85 24 0.16865875083275164 11 61 10 52 52 76 7 60
261 0.25135055749318941 -1.3324050611639557 9.130188799247744 43 73 44 0.55671478188351053 11 111 41 198
262 0.68730446579427196 -0.79596537925514155 8.5460940272915984 51 91 46 0.37577358612809619 11 118 10 108 41 128
264 0.24356864284904342 -2.7521614179309446 7.4679754838694681 24 54 16 0.30278858820028492 11 222 10 180 52 202
265 -0.28945079752460445 -2.380479615208571 7.5415702804666287 65 110 51 0.35051000253194886 11 186 10 185 52 259 41 223 9 224 8 259 51 231 50 211 7 218
266 -0.28945079752460445 -2.380479615208571 7.5415702804666287 65 110 51 0.35051000253194886 11 187 10 186 52 258 41 222 9 223 8 258 51 230 50 210 7 217
267 0.11553196149444431 -1.8394895470481214 7.5236013110846152 50 94 40 0.674859260882547 11 194 10 195 41 185 8 223 50 138
268 -0.010316677765693186 -3.3546915265360764 7.1328543296056619 44 75 34 0.90439597981648023 11 218 10 218 52 247 41 211 9 177
269 0.10727611709804673 -3.2501876946102453 7.3757584612745291 70 90 55 1.1852176936098642 11 253 10 219 41 244 9 209
270 -0.39344819492142852 -2.199646580191283 7.6728520197233836 94 143 82 0.78218666680304472 11 190 10 231 52 264 9 253 50 248 7 263
271 0.083523161815204944 -1.8415941747200657 7.5478815467928673 55 103 45 0.38327242134450079 11 264 10 233 52 286 41 258 9 254 8 301 51 236 7 253
272 1.4769154875083135 0.27169501054691775 8.4625187791937879 158 155 147 0.96567871983181119 11 277 10 257 41 267 27 376
273 0.67004163084142043 -1.1277641785873014 8.227229394567031 44 78 35 0.38056366465393915 11 312 10 283 52 320
274 0.59002258250620199 -1.0489604812472504 8.236767189866427 103 139 93 0.090057698197540517 11 313 10 284 52 348
275 -0.052204256477730471 -3.4978962831680875 6.5673820738778073 39 78 33 0.38076474221428319 11 319 10 294 41 305
276 -0.083070527578313597 -3.3090231610487271 6.9090205032621688 39 74 32 0.99393497041726686 11 321 10 295 52 358 41 307 9 265
277 -0.11762861197639563 -2.4035905928062964 7.4693997541840673 117 162 103 0.66130491359528731 11 304 10 297 51 300 50 259 52 311 10 270
278 -0.09475058540050825 -3.7509758023616042 6.1531115817193767 44 80 34 0.51490336825535576 53 473 10 312 52 353
279 -0.5521940582869771 -2.3400786777181151 8.8051763891369887 25 56 24 1.5146985513173088 11 289 10 329 52 373 8 378 51 335
280 0.21873516712437374 -1.3581994543523987 8.2652902124760406 35 62 31 0.43175371407965951 11 309 10 333 52 377
281 -0.13864928773458843 -3.0554344049034743 7.3047314021827168 35 75 30 0.97215790603624341 11 343 10 341 52 385 9 320 51 320 8 353
282 -0.1017767026894562 -2.3061893002389464 7.51435578208973 127 173 111 0.18978618709626691 11 356 10 349 52 400 41 387 9 342
283 0.57138368523372818 -0.87825090184097143 8.6196790698040413 152 205 147 0.32587309318258778 11 359 10 353 52 409
284 -0.18879947441978023 -1.6867576415118017 9.489821722865166 87 145 83 0.17952834760238079 10 359 52 411
285 -0.45906449621145395 -4.4592305806492556 5.5886855114823781 117 179 106 1.5689859847741279 11 370 10 364 41 397 9 354
287 -0.42245392127488796 -4.2743660350204147 5.4833071926981516 90 148 79 0.23909027807295294 10 122 52 10 9 128
288 -0.11435443559351588 -2.6409364849116721 7.4403501703858739 77 114 63 0.43769638294929658 53 54 52 60 41 71 51 69 27 215
289 -0.033187071462106206 -2.5805657549551686 7.4576983962833649 40 80 33 0.10000461859724828 53 58 52 65
290 0.077886222187485657 -2.2908252034336298 7.4502367815741204 39 77 26 0.68979381744229973 53 79 52 79
291 -0.045652635471347312 -1.9442120230200626 7.6260560908532042 53 103 42 0.23974225119004897 10 72 52 109 41 99
292 0.56418221236047383 -1.5310305526428063 7.7183009607490893 103 134 90 0.11031384303503212 10 84 52 126 41 104
293 1.4180393428303941 0.084179354218530053 8.7697393737759928 122 165 115 0.91937399528504338 10 117 52 172 41 138
294 1.4119903428894796 0.15846592734216083 8.5315314629517349 210 253 203 0.051060649343600419 10 118 52 173 41 140
295 -0.24545889328106968 -2.6824566302729229 7.4711870953321418 121 164 108 0.41903081001073883 53 201 52 203 41 220 9 186 8 253 51 191 50 131 7 213
296 0.17958836026747518 -1.892345264025646 7.5239922666531962 100 140 88 0.44598858340233771 53 322 52 213 41 227 9 192 9 226 51 195 51 234 50 209
297 -0.2954141644756943 -2.0242069218838199 7.6709158596248628 203 247 190 0.4624913830325873 10 192 52 214 41 187 9 160
298 -0.23055885149415972 -3.6326978223176325 6.2198964800948096 168 222 162 0.58455916624387194 53 278 52 244 9 205 41 240 51 180 8 237
299 -0.059729560089061891 -2.1622384862286066 7.4881160889256586 135 180 121 0.47381793560278124 10 151 23 183 52 260 41 252 50 175
300 0.0060481397852328641 -1.636227590198412 7.7452687064315731 187 234 188 0.95305148461764377 10 200 52 288 51 204
301 -0.69795850920488256 -2.5667124141362145 9.5519950264024427 124 141 133 1.2064168199120064 10 276 52 289 9 273
302 0.31068319229580482 -1.5362342915898064 7.648621884605042 51 91 39 0.77698510515491825 11 294 52 316 8 302
303 0.63425199524305509 -1.4335817127625574 7.8701760814449422 43 74 32 0.079102528982496825 10 278 52 318 41 292
304 0.26322122176618501 -1.3939918046313327 8.0720450845892948 76 130 70 0.26549197854383172 10 279 52 319 41 316 9 274
305 0.70623567495576212 -1.022829741962153 8.3165532208695474 51 83 42 0.16392803909116957 10 285 52 322 41 296
306 0.83494828128377629 -0.43818454061685647 8.6549845012323505 34 68 21 1.0833568641236953 10 288 52 352 41 359
308 -0.27691207628773634 -2.1125210427010566 7.7036767754460636 183 222 165 0.4373992458675075 10 325 52 370 41 346 9 310 8 365 51 330
309 0.58932507036634607 -1.4731690319067476 7.7819584890395319 47 79 38 0.5363783266532347 10 307 52 376 41 348 9 290 51 288
310 0.70582605920167574 -0.90354469764421363 8.4713684217185623 39 73 28 1.3278525277828099 11 117 12 129 24 245 25 168 13 125 10 104 52 156 53 337 11 206 25 282
316 -0.50381631300344598 -4.4686874883779746 5.4558328295064147 206 252 195 0.19857524209528998 52 5 41 5 9 3
317 -0.14399007072621692 -3.2705197894770173 6.9219541096777508 34 73 28 0.75331030686757317 10 140 41 41 9 138
318 0.050591722669461686 -2.2722735534351237 7.4521951158799524 97 134 83 0.32970475815557282 10 56 41 81 52 81
319 -0.43670279971041576 -2.4378709451089691 7.6580863466550184 218 250 202 0.18325360033695659 10 58 41 87 9 153
320 -0.39224225833009585 -2.368957002186534 7.618905843957327 69 110 54 0.35845064580780933 10 59 41 88 9 156
321 -0.70839099660361526 -4.6377923808627246 5.679316840542457 16 34 11 0.13393377212072 10 4 41 152 9 168
322 -0.19313450200898669 -3.6495249958120439 6.2357266864215823 102 144 96 0.79650219665024902 10 176 41 158 9 134 8 40
323 -0.18470069036864117 -3.4789693058817885 6.4502771574952416 126 166 115 0.55469968630583877 11 29 41 161 9 176
324 -0.22502689100943649 -3.4805821830051213 6.4799170782735578 148 201 142 0.79290049324940903 10 135 41 162 52 187 9 136
325 -0.27852664566887481 -3.3519005051658 6.8303593621785739 164 220 159 0.37692712020489239 10 138 41 167 9 208 8 242 51 221
326 0.030089702199819247 -2.1923129833247059 7.472441817226354 107 146 96 0.29933368912684538 52 90 41 181 51 156 8 219
327 0.23204726104321893 -1.9130339303008976 7.5142475387158738 36 69 26 0.32670547514235654 52 104 41 184 27 132
328 0.53526349036489018 -0.92678628959558318 8.4884599242914636 125 169 116 0.25591617425961877 52 230 41 199
329 0.53526349036489018 -0.92678628959558318 8.4884599242914636 125 169 116 0.25591617425961877 52 231 41 200
330 -0.11073287881167757 -3.2678274772015823 6.9963013099324973 94 131 87 0.1982075572072888 10 216 52 248 41 212
331 -0.15130218092801928 -2.6036926029631524 7.4463578324498654 101 141 89 0.30115883376727448 52 205 41 221 9 188 50 172 7 212
332 -0.97979956469488805 -3.0412534661970065 9.1938895690508762 125 142 124 0.1676407348305165 52 285 7 268
333 0.086889723895431509 -1.8416357659097646 7.5479370000464323 45 83 31 0.43543733274741075 52 287 41 259 7 254
334 1.4807610984215911 0.27133429248083291 8.4595654572970602 152 154 140 0.98071272235339746 11 278 41 268 27 377
335 -0.28533917118092883 -2.2260441830731144 7.6157467232847482 58 102 45 0.32533751719862541 52 283 41 286 50 247 51 261 7 285
336 0.64393359791721627 -1.1015181644974354 8.1542623632091047 52 83 42 1.0101866111770204 52 321 41 294 51 265
337 -0.63172226106901286 -4.7011990117770193 5.5213180431110827 153 212 148 1.0430503444582218 11 248 41 300 9 278
338 -0.19147560317997261 -3.4707228475741427 6.5252385385328617 98 141 88 0.28084721472251922 10 293 52 331 41 331
339 0.42589149282569633 -2.3064221280693711 7.4946709437930927 35 64 20 0.23400619690484636 10 299 52 335 41 338
340 -0.31759058486273356 -2.4777121495462651 7.5304556766034629 121 160 104 0.55724252698065868 10 296 41 340 9 289 8 339 51 303 50 281 7 315
341 -0.34503020674770607 -2.3425923545643563 7.5728336798146847 50 100 41 0.48507442602416229 10 301 52 338 41 342 9 306 8 360 51 328 50 283 7 317
342 -0.44369121817806073 -2.3390355555473277 7.6812601237920948 175 216 156 0.42577472343805028 10 323 52 367 41 344 9 308 8 362 51 307 50 301 7 321
343 -0.27793331000402666 -2.1119656163772453 7.7007829760663116 177 214 160 0.48574947835849053 52 371 41 347 9 311 8 364 51 331
344 -0.24306141690050323 -3.3352837632940138 6.9108752512987612 148 199 140 0.6738763051314266 52 383 41 362 9 297
345 -0.11513709249211114 -3.259613113194201 7.1774528392753165 41 82 39 0.41222965871360684 10 340 52 384 41 363 9 298
346 -0.35448207583691338 -3.3864116858482038 7.2543695579745906 76 132 70 0.48010673303740298 10 315 41 364 9 319
347 -0.55953974021398489 -3.4019804641819933 7.8811836467358329 64 111 63 1.1694399119344816 10 266 41 365 9 299
348 -0.29350609503910424 -2.8859378053572451 7.5957550457318233 47 96 41 1.2307545123696346 10 317 52 361 41 366 9 324 51 341 8 384
349 0.10503474031423431 -2.9962612224921656 7.4599388298856839 31 64 21 0.31722301770479139 10 348 52 397 41 377
350 0.32714515077589412 -3.1452116189846326 6.6409410688311112 0 0 0 0.65067798211127015 10 365 41 398
351 -0.14541054550397453 -2.5056310685669114 8.1920924281474559 50 97 37 0.92626551207835828 10 366 52 418 9 358
352 -0.1278009616451288 -2.5410926109976626 8.2372697823267451 50 97 37 2.0920500450619448 10 367 52 419 9 359 8 406
353 -0.18572036391033223 -3.7525888658935873 6.0302514883212224 108 155 101 0.7493600419790154 41 29 9 23 8 35 51 27
354 -0.21146355722012228 -3.5967054365179334 6.2589056012254609 46 91 38 0.84573354033533488 52 185 9 30 8 203 51 144
355 -0.1236393942387469 -3.3393938749405252 6.8280450627784059 88 124 78 0.82909912565715416 10 139 41 40 9 38
356 -0.28766494139346505 -3.1964358918048958 7.0973690707779147 146 189 133 0.32137816130548802 52 36 9 46 8 57
357 -0.14722046426427318 -2.6481769134559792 7.4337173972621446 103 135 85 0.47710894766007356 11 54 9 69 51 73
358 -0.40363782904146639 -2.7583931810438163 7.4643454250124313 135 173 116 0.29573683930983025 41 174 9 73 8 171
359 0.22395388358986759 -2.3643020664335066 7.4503840890169375 102 134 89 0.057120473296397439 41 75 9 77 27 226
360 -0.35897114451277773 -3.0175737558088049 7.496975866193619 187 227 174 0.18472515410739121 41 64 9 145 8 210 51 187
361 -0.42341657362192325 -2.4376764063857235 7.5570383356968023 68 113 54 1.5206302035047647 10 184 9 225 52 256 51 232 50 244 7 259
362 -0.80381718760624787 -4.5997363169919998 5.6065146151345235 146 147 141 1.0688664367228695 41 271 9 233 8 313
363 -0.74316877658421421 -4.5066011540498563 5.6537048213825605 148 153 144 0.64798071186581396 41 272 9 234 8 284
364 -0.062921593572065282 -4.0293827613811644 5.6617777949400345 45 76 34 0.41584252309062214 41 273 9 235 51 178
365 -0.26360194742301241 -3.2514166024999791 7.0036157830709351 125 175 116 0.27692266031289214 41 243 9 241 8 288 51 222
366 -0.39198829930997425 -3.1475188209529232 7.2872627359606854 160 205 150 0.45064744956196812 41 279 9 244 51 251
367 -0.80917809984399269 -4.7696223846252028 5.6186732220697202 148 149 143 1.0320166107297484 41 302 9 260 51 270
368 0.11143629019920873 -2.6453720762276629 7.4288780148002891 74 103 59 0.31638831105414228 10 249 9 270 8 319
369 -0.64007102795025017 -4.7096981809393661 5.4004566160852923 47 84 33 1.0925121872874786 41 270 9 277 51 293
370 -0.30022068112187833 -2.9734267598798123 7.3531973177991112 35 81 26 1.345754102883838 41 309 9 284 8 338 51 296
371 0.2287536891628503 -1.5145884888524477 7.6969018373653535 50 96 47 0.53670145691937354 41 349 9 291 51 310 8 341
372 -0.4455959333708111 -2.3383889608537118 7.6778123369326385 162 203 145 0.40118754019683078 41 343 9 307 8 361 51 306 50 302 7 320
373 -0.058243087246661121 -5.4237812241456673 6.6718180547271011 95 149 87 1.9307874461463126 9 355 8 396
374 -0.43102363737891153 -3.414708884348439 6.7122462898115236 81 128 73 1.3736971714240345 41 402 9 357
375 0.029831913763081315 -1.8834360551674942 7.5362036551895741 38 76 27 0.7448734068740821 41 97 8 94 27 124
376 0.080554329174575071 -1.7883043687830724 7.5572614240842908 96 132 84 0.44484998481409799 10 77 8 97 51 98 50 77
377 0.42830296091942105 -1.1864304268285544 7.979419641939236 101 140 93 1.6226601102501812 9 108 8 114
378 -0.73917064268671473 -4.7985212600142155 5.5363119015803752 62 106 53 0.59802809915804966 41 204 51 173 50 189
379 0.11570880503492845 -1.4547045984850864 9.6285473337929766 0 0 0 1.5676228388851654 10 240 41 324
381 0.37819012476671238 -2.7264045371028369 7.5835478827222511 34 60 15 1.1602724246433023 9 268 41 311 8 292 51 250
382 -0.21482128364344447 -2.4432813808814537 7.5063479898882219 43 83 33 0.41026851275166237 52 255 8 299 7 250
383 -0.14462920598444304 -2.6680441247402107 7.4046289485771632 81 111 61 0.75016601615806289 9 325 8 371 51 340
386 -0.7121795274516648 -4.6190193200476708 5.6439500999364762 83 119 73 0.68448026167452936 8 147 51 15 50 11
387 0.074668163086311273 -2.5265513784350406 7.4543475880830439 94 127 82 0.63425360965361233 8 76 51 68 50 53 7 44
388 0.24446684596041043 -2.2693875684989635 7.4559302463429376 90 122 75 0.39857079010296098 41 77 51 77 27 231
389 -0.24671630220769031 -2.6841991797546023 7.4701727247648826 84 120 72 0.4128302153562875 9 187 51 192 50 132
390 -0.28039697133100594 -2.306303873005056 7.5207003375723076 96 139 86 0.10506963956035915 8 300 51 233 7 256
391 -0.095608880862283238 -3.2883281391341441 6.9176207981291151 63 91 50 0.78873119909255418 8 287 9 266 51 246
392 0.039615790832333228 -3.200808795628193 7.009814766390229 1 2 6 0.72568254681816535 9 240 51 247
393 0.10177111532460417 -2.1462197329318133 7.464672570554467 39 75 29 0.18992561156222135 8 358 51 301 50 278 7 312
394 0.54673207699774684 -1.238147335148335 8.0075360566576546 48 88 42 1.2260462380240349 8 342 51 311 50 266 7 286
395 -0.0070228010399386153 -3.0699495506871552 7.0482303986165844 52 74 41 1.592445593205386 9 318 51 337
396 -0.4104154344192808 -3.3281483606600322 7.4407769412125138 67 112 57 1.5496638847330582 8 383 51 338 7 356
397 0.027362835256210256 -2.0004178310152652 7.5272840384896096 98 133 79 0.36779632146040131 8 375 51 342 50 309 7 337
398 -0.10038244562802212 -2.3020785537521933 7.5076316429845154 97 134 80 0.24842517830624372 8 385 51 347 50 320 7 349
399 -0.51365098020908195 -4.876998976868423 5.8529355849297984 122 166 107 0.85400279475316765 8 395 51 353 7 358
401 -0.65759729166750736 -4.1601977807583364 6.2939708293853336 0 0 0 1.0869938447258707 8 400 50 331
402 -0.15314725914100863 -2.213870829390844 8.5783097423777583 96 135 81 1.6050009455942325 25 465 26 391 27 478
403 -0.15314725914100863 -2.213870829390844 8.5783097423777583 96 135 81 1.6050009455942325 25 466 26 392 27 479
404 0.10143365672564229 -2.1465661507365659 7.4635749588459204 39 83 29 0.30315316593460973 53 454 11 326 22 592 12 352 24 444 23 298 25 415 10 302 52 366 41 341 9 305 26 364 54 311 13 347 27 451
405 -0.27107163499785702 -2.4509456485778038 7.4890471744559823 104 142 93 0.21473711526602482 41 180 50 176 7 141
406 -0.88549078833326456 -1.4644780115983609 6.7403106786133895 0 1 0 0.2881669685989714 9 162 50 222
407 -0.72598623892121927 -4.580084469481549 5.6337694183081544 12 27 8 1.0140202124636046 51 213 50 229 7 233
408 -0.20253639267081605 -2.1485077269202706 7.5987331670795353 45 88 35 0.67313755698054267 8 325 41 313 50 265 7 284
409 0.27558055740835319 -1.8410373415715409 7.5643543401876832 39 77 30 0.38965582204556198 8 359 50 279 7 314
412 -0.51572568645504591 -4.2930493133803633 5.4419082225678697 46 85 38 1.3832708590516354 52 413 50 335 7 367
413 -0.51572568645504591 -4.2930493133803633 5.4419082225678697 46 85 38 1.3832708590516354 52 412 50 336 7 368
416 -0.35774791545970547 -3.4808119061057976 7.0212218975476786 51 101 50 0.29401865763987051 8 404 7 366
417 -0.21437494140107546 -2.336393566446481 8.0410876000095008 153 193 148 2.0099290970703625 41 403 50 337 7 369
418 -0.23586100503883314 -2.4235929136007313 7.5136054146703461 35 71 23 0.073559556520874245 52 77 7 59 10 53
